# .PCD v0.7 - Point Cloud Data file format
VERSION 0.7
FIELDS x y z rgb
SIZE 4 4 4 4
TYPE F F F U
COUNT 1 1 1 1
WIDTH 1165
HEIGHT 1
VIEWPOINT 0 0 0 1 0 0 0
POINTS 1165
DATA ascii
0.58247674 -0.51048124 2.1017818 2894892
0.58196831 -0.46087074 2.1011784 2894892
0.58145982 -0.41126758 2.1005745 2894892
0.58094227 -0.3607699 2.0999608 2894892
0.58042473 -0.31027973 2.0993459 2894892
0.57991654 -0.26069865 2.0987425 2894892
0.57940817 -0.2111247 2.0981383 2894892
0.57889122 -0.160657 2.0975251 2894892
0.57837391 -0.1101968 2.0969114 2894892
0.57786602 -0.060644932 2.096308 2894892
0.57735813 -0.011100411 2.095705 2894892
0.57684112 0.039337501 2.0950911 2894892
0.57632411 0.089767866 2.0944774 2894892
-1.5509216 0.10444587 2.2111857 10000536
-1.505215 0.10482019 2.196028 10000536
-1.4580534 0.10527991 2.1913216 10000536
-1.4075998 0.10579512 2.1897738 10197915
-1.3584515 0.1062949 2.1879556 10197915
-1.3087897 0.10680208 2.1864419 10197915
-1.2586361 0.10731623 2.1852021 10197915
-1.2084525 0.10782669 2.1833625 10197915
-1.1582079 0.10834176 2.1821203 10197915
-1.1083659 0.10885074 2.1805913 10197915
-1.0584781 0.10936014 2.1790602 10197915
-1.0081218 0.10987234 2.1772146 10197915
-0.95814186 0.11038264 2.1756697 10197915
-0.90855581 0.11089105 2.1744595 10197915
-0.85848504 0.11140237 2.1729226 10197915
-0.80836856 0.11191411 2.1713846 10197915
-0.75868106 0.1124194 2.1695483 10197915
-0.71320331 0.11281136 2.1573691 10197915
-0.65937662 0.11332033 2.1496582 10197915
-0.60858071 0.11383893 2.1480911 10197915
-0.55862969 0.11434896 2.1465502 10197915
-0.50863314 0.11485945 2.1450083 10197915
-0.45859122 0.1153704 2.143465 10197915
-0.40939826 0.11587267 2.141948 10197915
-0.36016095 0.11637539 2.140429 10197915
-0.30998319 0.11688773 2.1388812 10197915
-0.25975949 0.11740053 2.1373322 10197915
-0.20948993 0.11791383 2.1357822 10197915
-0.15917425 0.11842757 2.1342297 10197915
-0.10971238 0.11893257 2.1327035 10197915
-0.060205698 0.11943805 2.1311769 10197915
-0.009753257 0.11995322 2.129621 10197915
0.04074543 0.12046882 2.1280634 10197915
0.090387344 0.12097569 2.1265321 10197915
0.14007428 0.121483 2.1249995 10197915
0.19178014 0.1219094 2.1082895 10197915
0.23949245 0.12238341 2.1048636 10197915
0.28939587 0.12289494 2.1036217 10197915
0.33931094 0.1234025 2.1017692 10197915
0.38930228 0.1239149 2.1005247 10197915
0.43931013 0.12442342 2.0986693 10197915
0.48938972 0.12493675 2.0974226 10197915
0.53949058 0.12544622 2.0955644 10197915
0.57232988 0.12408404 2.0973072 8224125
0.59205461 -0.60427898 2.1461589 5460819
0.59160173 -0.56010294 2.1456206 2894892
0.59109193 -0.5104112 2.1450133 2894892
0.59058201 -0.46072641 2.1444054 2894892
0.59007227 -0.41104898 2.1437981 2894892
0.58955306 -0.36045921 2.1431789 2894892
0.58903396 -0.30987689 2.1425605 2894892
0.58852434 -0.26022172 2.1419528 2894892
0.5880146 -0.21057367 2.1413448 2894892
0.58750552 -0.16093314 2.1407387 2894892
0.58698666 -0.11038072 2.1401203 2894892
0.58646798 -0.05983581 2.1395023 2894892
0.5859586 -0.010217289 2.1388946 2894892
0.5854494 0.039393932 2.1382873 2894892
0.58494025 0.088997871 2.1376801 2894892
-1.587189 0.10431124 2.2474015 10000536
-1.5555432 0.10463452 2.2464459 10000536
-1.5057795 0.1051428 2.2449424 10000536
-1.4550645 0.10566085 2.2434106 10000536
-1.4052088 0.10617013 2.2419045 10197915
-1.3553071 0.10667984 2.2403972 10197915
-1.3053597 0.10719003 2.2388883 10197915
-1.2553662 0.10770072 2.2373784 10197915
-1.2053273 0.10821185 2.235867 10197915
-1.1561532 0.10871416 2.2343817 10197915
-1.1060226 0.10922619 2.2328668 10197915
-1.0558461 0.10973874 2.2313511 10197915
-1.005623 0.11025175 2.2298341 10197915
-0.95535433 0.11076525 2.2283161 10197915
-0.90595412 0.11126985 2.2268236 10197915
-0.85559291 0.11178426 2.2253017 10197915
-0.80518562 0.11229914 2.2237792 10197915
-0.75564963 0.11280517 2.2222834 10197915
-0.70435578 0.11322239 2.2048421 10197915
-0.65718782 0.11369203 2.2016044 10197915
-0.60699719 0.11420465 2.2000802 10197915
-0.55632728 0.11472 2.1982191 10197915
-0.50648534 0.11523122 2.1970279 10197915
-0.45663577 0.11573824 2.1951911 10197915
-0.40670526 0.11625036 2.1939976 10197915
-0.35676247 0.11675826 2.1921575 10197915
-0.30674317 0.11727131 2.1909616 10197915
-0.25670728 0.1177802 2.1891189 10197915
-0.20659882 0.11829416 2.1879203 10197915
-0.15691479 0.11880162 2.1864116 10197915
-0.10674717 0.11931179 2.1845641 10197915
-0.056496978 0.11982723 2.183362 10197915
-0.011236414 0.12025158 2.1763403 10197915
0.042351723 0.1207172 2.1625421 10197915
0.092780441 0.12123219 2.1610024 10197915
0.14233731 0.12173828 2.1594892 10197915
0.19193876 0.12224485 2.157975 10197915
0.24158488 0.12275185 2.1564596 10197915
0.29219642 0.12326875 2.1549141 10197915
0.34285411 0.12378605 2.1533673 10197915
0.39263612 0.12429444 2.1518474 10197915
0.44246304 0.12480331 2.1503263 10197915
0.49233496 0.12531264 2.1488037 10197915
0.54225177 0.12582242 2.1472797 10197915
0.57983077 0.12372384 2.142555 7829367
0.60102385 -0.60424757 2.1911647 5592405
0.60057098 -0.56010723 2.1906252 2894892
0.60004985 -0.50939912 2.1900015 2894892
0.59953845 -0.45963734 2.1893895 2894892
0.59902722 -0.40988296 2.1887774 2894892
0.59851605 -0.36013582 2.1881652 2894892
0.598005 -0.31039596 2.1875539 2894892
0.59748435 -0.25972521 2.1869307 2894892
0.596973 -0.21000017 2.1863184 2894892
0.59646249 -0.16028255 2.1857083 2894892
0.59594202 -0.10963427 2.1850848 2894892
0.59543121 -0.059931286 2.1844733 2894892
0.59492052 -0.010235665 2.1838617 2894892
0.59440017 0.040390112 2.183239 2894892
0.59388971 0.090071 2.1826274 2894892
-1.6371406 0.10429604 2.3225946 10000536
-1.6008054 0.10454927 2.3039412 10000536
-1.5530263 0.10502975 2.3013756 10000536
-1.5029554 0.10554139 2.2998888 10000536
-1.4533296 0.10604612 2.2980604 10000536
-1.4031633 0.10655878 2.2965837 10132122
-1.3524792 0.10707895 2.295419 10197915
-1.3027041 0.10758515 2.293586 10197915
-1.2528603 0.10809687 2.2924597 10197915
-1.2025119 0.10861134 2.2909644 10197915
-1.1542677 0.10898698 2.2720692 10197915
-1.1034665 0.10949698 2.2692087 10197915
-1.0533954 0.11000857 2.2677126 10197915
-1.0032785 0.1105206 2.2662156 10197915
-0.95311546 0.11103311 2.2647171 10197915
-0.90383655 0.11153661 2.2632453 10197915
-0.85451269 0.11204051 2.2617712 10197915
-0.80421299 0.11255441 2.2602687 10197915
-0.75386649 0.11306883 2.258765 10197915
-0.70347393 0.11358368 2.2572591 10197915
-0.65396941 0.11408948 2.2557807 10197915
-0.60441965 0.1145957 2.2543001 10197915
-0.55388921 0.11511196 2.2527907 10197915
-0.50424927 0.11561914 2.2513077 10197915
-0.45456401 0.11612675 2.2498233 10197915
-0.40389502 0.11664444 2.2483099 10197915
-0.35411906 0.117153 2.2468226 10197915
-0.30429763 0.11766201 2.2453346 10197915
-0.25443125 0.11817151 2.243845 10197915
-0.20451924 0.11868147 2.2423539 10197915
-0.15456215 0.11919188 2.2408617 10197915
-0.10455938 0.11970271 2.2393672 10197915
-0.054511368 0.12021406 2.2378726 10197915
-0.00047855079 0.12068579 2.2243016 10197915
0.044865474 0.12110581 2.2165027 10197915
0.094646521 0.12161437 2.2150078 10197915
0.14491615 0.12212555 2.2131498 10197915
0.19478998 0.12263505 2.2116513 10197915
0.24518633 0.12315218 2.210485 10197915
0.29514828 0.12366258 2.2089844 10197915
0.34466219 0.12416613 2.2071486 10197915
0.39471683 0.12467739 2.2056451 10197915
0.44483709 0.1251941 2.2048354 10197915
0.49494213 0.12570132 2.2026341 10197915
0.54467595 0.12621173 2.2014885 10197915
0.5853458 0.1255262 2.1983347 9079434
0.61035794 -0.60325599 2.23804 5592405
0.60990465 -0.55915284 2.2374961 2894892
0.60939169 -0.50930339 2.2368801 2894892
0.60887885 -0.45946118 2.236263 2894892
0.60836601 -0.40962636 2.235647 2894892
0.60785335 -0.35979888 2.2350302 2894892
0.60734069 -0.30997872 2.2344143 2894892
0.60682815 -0.26016593 2.2337985 2894892
0.60630584 -0.20940274 2.2331703 2894892
0.60578376 -0.15864721 2.2325432 2894892
0.60527128 -0.10885669 2.2319269 2894892
0.60475898 -0.059073482 2.2313111 2894892
0.60424674 -0.0092976354 2.230695 2894892
0.60373461 0.040470883 2.2300794 2894892
0.60322249 0.090232059 2.2294638 2894892
-1.6756898 0.10416205 2.3624277 10000536
-1.6500837 0.10442381 2.36168 10000536
-1.5997888 0.1049379 2.3602133 10000536
-1.5494469 0.10545248 2.3587446 10000536
-1.5000101 0.10595778 2.3573031 10000536
-1.4505279 0.1064636 2.3558598 10000536
-1.4000473 0.10697954 2.3543863 10132122
-1.3495202 0.10749605 2.3529127 10197915
-1.2999007 0.10800322 2.3514652 10197915
-1.250236 0.1085109 2.3500166 10197915
-1.2005261 0.10901901 2.3485663 10197915
-1.1507564 0.10939969 2.3280549 10197915
-1.1008897 0.10990681 2.3262103 10197915
-1.050506 0.11042173 2.3247316 10197915
-1.0005789 0.11092953 2.3228989 10197915
-0.9505595 0.11144319 2.3217983 10197915
-0.90053856 0.11195199 2.319962 10197915
-0.85042959 0.1124666 2.3188586 10197915
-0.80076933 0.11297418 2.3174021 10197915
-0.75110877 0.11347666 2.3151937 10197915
-0.70132983 0.11399052 2.3144832 10197915
-0.65611088 0.11440425 2.3059599 10197915
-0.60198981 0.11487447 2.2920282 10197915
-0.55156976 0.11538972 2.29054 10197915
-0.50205576 0.11589575 2.2890778 10197915
-0.45249707 0.1164022 2.2876151 10197915
-0.40289336 0.11690909 2.2861497 10197915
-0.3522895 0.11742621 2.2846556 10197915
-0.30163932 0.11794382 2.2831595 10197915
-0.25189906 0.11845214 2.2816911 10197915
-0.20211391 0.1189609 2.2802212 10197915
-0.15228349 0.11947013 2.2787495 10197915
-0.10240783 0.11997981 2.2772768 10197915
-0.052487031 0.12048997 2.2758031 10197915
-0.0025209188 0.1210006 2.274327 10197915
0.047490641 0.12151168 2.272851 10197915
0.097547583 0.12202323 2.2713723 10197915
0.14765006 0.12253519 2.2698932 10197915
0.19779812 0.12304769 2.2684124 10197915
0.24799177 0.12356063 2.2669301 10197915
0.29823112 0.12407406 2.2654467 10197915
0.3475486 0.12457803 2.2639902 10197915
0.39691043 0.12508245 2.2625327 10197915
0.44728547 0.12559725 2.2610447 10197915
0.49770647 0.12611252 2.2595563 10197915
0.54817355 0.12662826 2.2580664 10197915
0.59391034 0.12551151 2.2498746 8553090
0.62010026 -0.60320157 2.2869256 9934743
0.61964637 -0.55913693 2.2863786 9474192
0.6191318 -0.50920355 2.2857568 9474192
0.61861742 -0.45927754 2.285136 9474192
0.61809301 -0.40838015 2.284503 9276813
0.61757874 -0.35846901 2.2838819 5592405
0.61706448 -0.30856526 2.2832611 5592405
0.61655045 -0.25866878 2.2826402 5592405
0.61603642 -0.2087798 2.2820199 5592405
0.6155225 -0.15889813 2.2813997 5592405
0.61500847 -0.10902379 2.2807789 5592405
0.61449462 -0.059156768 2.2801583 5592405
0.61398083 -0.0092971753 2.2795377 5592405
0.61345702 0.041532502 2.2789052 5592405
0.61294335 0.091377266 2.2782848 7039851
-1.6895076 0.10428965 2.402848 10000536
-1.6480343 0.10471369 2.4016538 10000536
-1.5978391 0.1052269 2.4002082 10000536
-1.5475976 0.10574057 2.3987615 10000536
-1.4973094 0.10625473 2.3973129 10000536
-1.4479434 0.10675944 2.3958907 10000536
-1.3985316 0.10726462 2.3944674 10132122
-1.3481053 0.1077802 2.3930149 10197915
-1.2976323 0.10829624 2.3915615 10197915
-1.2480845 0.10880283 2.3901346 10197915
-1.1984912 0.10930987 2.3887062 10197915
-1.147879 0.10982731 2.3872478 10197915
-1.0981948 0.11033531 2.3858168 10197915
-1.0484647 0.11084376 2.3843846 10197915
-0.99771333 0.11136264 2.3829229 10197915
-0.94789207 0.11187202 2.3814878 10197915
-0.89802444 0.11238186 2.3800511 10197915
-0.84811211 0.11289217 2.3786137 10197915
-0.798154 0.11340296 2.3771749 10197915
-0.74814999 0.11391422 2.3757348 10197915
-0.69810027 0.11442595 2.3742938 10197915
-0.64481229 0.11487328 2.3582535 10197915
-0.599154 0.11530175 2.3512337 10197915
-0.54893219 0.11581253 2.3493812 10197915
-0.49912158 0.11632174 2.3479371 10197915
-0.44923311 0.11683708 2.3472846 10197915
-0.39938623 0.11734131 2.3450453 10197915
-0.34943968 0.11785189 2.3435979 10197915
-0.29894453 0.11837077 2.3425317 10197915
-0.24890922 0.11888231 2.3410809 10197915
-0.20365138 0.11925979 2.3270912 10197915
-0.14992769 0.11975783 2.3179185 10197915
-0.10018365 0.12026628 2.316467 10197915
-0.050394282 0.1207752 2.3150146 10197915
-0.00056014955 0.1212846 2.3135612 10197915
0.049319461 0.12179445 2.3121064 10197915
0.10022351 0.12231478 2.3106217 10197915
0.15019411 0.12282554 2.3091629 10197915
0.19922912 0.12332677 2.3077331 10197915
0.24928987 0.12383847 2.3062725 10197915
0.2993958 0.12435064 2.304811 10197915
0.34954751 0.12486327 2.3033481 10197915
0.39974448 0.12537634 2.3018837 10197915
0.44900167 0.12587982 2.3004465 10197915
0.49928939 0.12639388 2.2989798 10197915
0.5496226 0.12690836 2.2975118 10197915
0.59896475 0.12610592 2.292124 9803157
-1.7283182 0.10417099 2.4453671 10000536
-1.6959587 0.10450193 2.4444475 10000536
-1.6459129 0.10501371 2.4430251 10000536
-1.5958216 0.105526 2.4416013 10000536
-1.5456834 0.10603876 2.440177 10000536
-1.495499 0.10655197 2.4387507 10000536
-1.4462534 0.10705558 2.4373503 10000536
-1.3959768 0.10756973 2.4359224 10066329
-1.3456541 0.10808439 2.4344923 10197915
-1.2962729 0.10858938 2.4330888 10197915
-1.2458576 0.10910497 2.4316556 10197915
-1.1953954 0.10962101 2.4302211 10197915
-1.1458772 0.11012742 2.4288137 10197915
-1.0963147 0.1106343 2.4274056 10197915
-1.0457137 0.11115178 2.4259675 10197915
-0.99506623 0.11166974 2.4245281 10197915
-0.94536579 0.11217799 2.4231153 10197915
-0.89562011 0.11268671 2.4217014 10197915
-0.84582931 0.11319592 2.4202862 10197915
-0.79599297 0.11370558 2.4188702 10197915
-0.74611127 0.11421574 2.4174528 10197915
-0.69618386 0.11472629 2.4160337 10197915
-0.64621067 0.11523734 2.4146128 10197915
-0.5961923 0.11574887 2.4131913 10197915
-0.54612809 0.11626088 2.4117687 10197915
-0.49601802 0.11677334 2.4103448 10197915
-0.44586203 0.11728626 2.4089193 10197915
-0.3956601 0.11779963 2.4074919 10197915
-0.34541225 0.11831351 2.406064 10197915
-0.29612499 0.11881757 2.4046633 10197915
-0.24679299 0.11932206 2.4032612 10197915
-0.19454879 0.11973455 2.3836453 10197915
-0.14723058 0.12019916 2.3794291 10197915
-0.097188443 0.12071085 2.3779976 10197915
-0.047154337 0.1212168 2.375725 10197915
0.0030150414 0.12173548 2.3751304 10197915
0.053194001 0.1222486 2.3736956 10197915
0.10289303 0.12275387 2.3718431 10197915
0.14809972 0.1231693 2.3635793 10197915
0.20170747 0.12362564 2.3483765 10197915
0.25163138 0.12413607 2.3469386 10197915
0.30160046 0.12464697 2.3454988 10197915
0.3516148 0.1251583 2.3440585 10197915
0.40167442 0.12567009 2.3426166 10197915
0.45177951 0.12618239 2.3411734 10197915
0.50193006 0.12669516 2.3397293 10197915
0.55212611 0.12720834 2.3382831 10197915
0.60136223 0.12771177 2.3368652 10197915
-1.7826688 0.10420121 2.5341644 10000536
-1.7418147 0.10446706 2.5103743 10000536
-1.6919613 0.10498013 2.5094409 10000536
-1.6420908 0.10548731 2.5075998 10000536
-1.5921482 0.10600131 2.5066645 10066329
-1.5448185 0.10646121 2.501725 10066329
-1.493624 0.10685978 2.4816632 10000536
-1.4445034 0.10736226 2.4802866 10000536
-1.3943349 0.10787546 2.4788806 10066329
-1.3441204 0.10838913 2.4774737 10197915
-1.293859 0.10890327 2.4760652 10197915
-1.2435513 0.10941789 2.4746552 10197915
-1.193197 0.10993294 2.4732435 10197915
-1.1438047 0.11043821 2.471859 10197915
-1.0943673 0.11094392 2.4704742 10197915
-1.043875 0.11146043 2.469059 10197915
-0.99333596 0.11197742 2.4676433 10197915
-0.94376206 0.11248448 2.4662526 10197915
-0.89414316 0.11299209 2.4648621 10197915
-0.84346515 0.11351047 2.463443 10197915
-0.79375523 0.11401898 2.4620495 10197915
-0.7439996 0.11452796 2.4606552 10197915
-0.69318229 0.11504776 2.4592309 10197915
-0.64333546 0.11555767 2.4578338 10197915
-0.59344292 0.11606804 2.4564354 10197915
-0.54350525 0.11657889 2.4550362 10197915
-0.49352175 0.11709018 2.4536355 10197915
-0.44349292 0.11760192 2.4522331 10197915
-0.39341795 0.11811414 2.4508297 10197915
-0.34329778 0.11862686 2.449425 10197915
-0.2941559 0.11912955 2.4480481 10197915
-0.24394467 0.11964318 2.446641 10197915
-0.19368771 0.12015729 2.4452324 10197915
-0.14441164 0.12066128 2.443851 10197915
-0.094063342 0.12117635 2.4424403 10197915
-0.043669239 0.12169185 2.4410279 10197915
0.0057413131 0.1221973 2.4396436 10197915
0.056227215 0.12271374 2.4382284 10197915
0.10675916 0.12323064 2.4368126 10197915
0.15960416 0.12366823 2.4200039 10197915
0.20506726 0.12408666 2.4117928 10197915
0.25479239 0.12459826 2.4108348 10197915
0.30453241 0.12510401 2.4089854 10197915
0.3548851 0.12562503 2.4084563 10197915
0.40519312 0.12613355 2.4061441 10197915
0.45210499 0.12649205 2.3867617 10197915
0.5036422 0.1269965 2.3819332 10197915
0.55369502 0.1275084 2.3805115 10197915
0.60379344 0.12802076 2.3790874 10197915
0.63243949 0.12831371 2.3782732 10197915
-1.8242366 0.10408507 2.5813348 10197915
-1.789114 0.10444453 2.58038 10197915
-1.7384589 0.104963 2.5790029 10197915
-1.6887913 0.10547137 2.5776527 10197915
-1.6390783 0.10598016 2.5763004 10197915
-1.5893197 0.10648945 2.5749478 10197915
-1.5362711 0.10697036 2.564275 10197915
-1.4906923 0.10734063 2.5487123 10197915
-1.4407179 0.10785522 2.5478141 10197915
-1.3907365 0.10836355 2.5459735 10197915
-1.3423978 0.10871854 2.523855 10197915
-1.2913563 0.10922838 2.520597 10197915
-1.2411598 0.10974198 2.5192101 10197915
-1.1919432 0.11024556 2.5178509 10197915
-1.1416548 0.11076012 2.5164623 10197915
-1.0913206 0.11127514 2.5150726 10197915
-1.0419685 0.11178013 2.5137098 10197915
-0.99154139 0.11229609 2.5123174 10197915
-0.94106829 0.11281252 2.5109229 10197915
-0.89157993 0.11331889 2.5095563 10197915
-0.84204668 0.11382574 2.5081887 10197915
-0.79143488 0.1143436 2.5067906 10197915
-0.74077654 0.11486197 2.5053923 10197915
-0.6911062 0.11537013 2.5040197 10197915
-0.64139092 0.11587884 2.5026474 10197915
-0.59163046 0.11638802 2.5012736 10197915
-0.54182494 0.11689764 2.4998975 10197915
-0.49197376 0.11740772 2.4985213 10197915
-0.44207716 0.11791825 2.4971435 10197915
-0.3921352 0.11842923 2.4957638 10197915
-0.34214789 0.11894073 2.4943833 10197915
-0.29211509 0.11945267 2.4930017 10197915
-0.24203652 0.11996508 2.4916189 10197915
-0.19191228 0.12047799 2.4902351 10197915
-0.14174229 0.12099127 2.4888489 10197915
-0.091526493 0.1215051 2.4874628 10197915
-0.041264847 0.12201939 2.4860747 10197915
0.0090427548 0.12253416 2.4846854 10197915
0.058346651 0.12303863 2.4833238 10197915
0.10769505 0.12354357 2.481961 10197915
0.1581389 0.1240597 2.4805679 10197915
0.20862892 0.12457634 2.4791737 10197915
0.25811172 0.12508264 2.477807 10197915
0.30763924 0.12558942 2.4764395 10197915
0.35826629 0.12610744 2.4750416 10197915
0.40893969 0.1266259 2.4736416 10197915
0.45863539 0.12698562 2.4501135 10197915
0.50738209 0.12748095 2.4482541 10197915
0.55719292 0.12798734 2.4463859 10197915
0.60708499 0.12850098 2.4454801 10197915
0.6385982 0.12879801 2.4408209 10197915
-1.8652297 0.10398619 2.630183 10197915
-1.8368373 0.10427687 2.6294241 10197915
-1.7863281 0.10479397 2.6280727 10197915
-1.7368259 0.10530078 2.6267486 10197915
-1.687278 0.10580806 2.6254234 10197915
-1.6366291 0.10632659 2.6240685 10197915
-1.5859326 0.10684561 2.6227124 10197915
-1.5362468 0.10735428 2.6213827 10197915
-1.4865154 0.10786343 2.6200526 10197915
-1.436739 0.10837304 2.6187215 10197915
-1.386916 0.10888314 2.617389 10197915
-1.337923 0.10922363 2.5920956 10197915
-1.2913926 0.10967688 2.5874121 10197915
-1.2397254 0.1100675 2.5654416 10197915
-1.1895998 0.11058053 2.5640788 10197915
-1.1394277 0.11109407 2.5627146 10197915
-1.0892094 0.11160804 2.5613494 10197915
-1.038945 0.11212251 2.5599833 10197915
-0.98863381 0.11263741 2.5586143 10197915
-0.93827659 0.1131528 2.5572453 10197915
-0.88892365 0.11365793 2.5559032 10197915
-0.83952552 0.11416353 2.5545602 10197915
-0.78903055 0.11468036 2.5531871 10197915
-0.73848861 0.11519764 2.5518131 10197915
-0.68895459 0.11570459 2.5504661 10197915
-0.63937563 0.11621205 2.549118 10197915
-0.58869541 0.11673076 2.5477405 10197915
-0.53902578 0.11723913 2.5463903 10197915
-0.48931074 0.11774798 2.5450385 10197915
-0.43955076 0.11825725 2.5436847 10197915
-0.38974547 0.11876699 2.5423303 10197915
-0.33883393 0.11928807 2.5409458 10197915
-0.28893733 0.11979878 2.5395892 10197915
-0.23899511 0.12030993 2.5382314 10197915
-0.18900776 0.12082154 2.5368719 10197915
-0.13897449 0.12133359 2.5355117 10197915
-0.088896111 0.12184616 2.5341501 10197915
-0.038771823 0.12235916 2.5327871 10197915
0.011397943 0.12287266 2.5314233 10197915
0.06054464 0.1233757 2.530087 10197915
0.11080525 0.12389009 2.5287201 10197915
0.1611114 0.12440496 2.5273519 10197915
0.21039185 0.12490934 2.5260122 10197915
0.26078925 0.12542515 2.5246418 10197915
0.31123245 0.12594146 2.5232708 10197915
0.36064714 0.12644723 2.5219274 10197915
0.410106 0.12695339 2.5205812 10197915
0.46068603 0.12747107 2.5192063 10197915
0.51131213 0.12798925 2.5178301 10197915
0.56090611 0.12849684 2.5164816 10197915
0.61054456 0.1290049 2.5151322 10197915
0.65120852 0.12933074 2.5005765 10197915
-1.8820587 0.1041468 2.680187 10197915
-1.833841 0.10464057 2.6789191 10197915
-1.7834346 0.10515681 2.6775937 10197915
-1.734056 0.10566253 2.6762958 10197915
-1.6846316 0.10616869 2.6749959 10197915
-1.634086 0.10668631 2.6736674 10197915
-1.5834931 0.10720437 2.6723366 10197915
-1.533932 0.10771196 2.6710343 10197915
-1.4843248 0.10822 2.6697295 10197915
-1.4346725 0.10872848 2.6684241 10197915
-1.384975 0.10923744 2.6671178 10197915
-1.3341492 0.10975795 2.6657813 10197915
-1.2822523 0.11021214 2.652916 10197915
-1.2361102 0.11042704 2.6133544 10197915
-1.1861036 0.11093903 2.6120169 10197915
-1.1371167 0.11144054 2.6107066 10197915
-1.0870188 0.11195344 2.6093667 10197915
-1.0368751 0.11246683 2.6080256 10197915
-0.9866848 0.11298062 2.6066821 10197915
-0.93644911 0.11349493 2.6053388 10197915
-0.88723725 0.11399879 2.6040225 10197915
-0.83690929 0.11451404 2.6026762 10197915
-0.78653538 0.11502977 2.6013286 10197915
-0.73718804 0.11553496 2.6000085 10197915
-0.6867218 0.11605164 2.5986586 10197915
-0.63620925 0.11656877 2.597307 10197915
-0.58672637 0.11707538 2.5959837 10197915
-0.5371986 0.11758246 2.5946591 10197915
-0.48654768 0.11810101 2.5933037 10197915
-0.43585011 0.11862002 2.5919476 10197915
-0.38618571 0.11912847 2.5906191 10197915
-0.33647642 0.11963743 2.5892897 10197915
-0.286722 0.12014679 2.5879588 10197915
-0.23692255 0.12065664 2.5866265 10197915
-0.18707789 0.12116693 2.5852933 10197915
-0.1371879 0.12167769 2.5839586 10197915
-0.087252721 0.12218892 2.5826225 10197915
-0.037272155 0.12270065 2.581286 10197915
0.012753829 0.12321281 2.5799479 10197915
0.062825307 0.12372543 2.5786085 10197915
0.11294229 0.12423849 2.5772676 10197915
0.16310491 0.12475206 2.5759256 10197915
0.21331319 0.12526612 2.5745826 10197915
0.26356718 0.12578058 2.5732386 10197915
0.31386703 0.12629557 2.5718935 10197915
0.36311758 0.12679981 2.5705762 10197915
0.41241229 0.12730443 2.569257 10197915
0.46284783 0.12782079 2.5679076 10197915
0.51332945 0.12833761 2.5665572 10197915
0.56385714 0.12885492 2.5652058 10197915
0.61333102 0.12936144 2.5638828 10197915
0.65844536 0.12982331 2.5626762 10197915
-1.9246418 0.10405648 2.7327738 10197915
-1.8820727 0.10449255 2.7316742 10197915
-1.8318208 0.10500736 2.7303772 10197915
-1.7815228 0.10552262 2.729079 10197915
-1.7311773 0.10603837 2.7277792 10197915
-1.6807854 0.10655461 2.7264786 10197915
-1.6314433 0.10706004 2.725204 10197915
-1.5820568 0.10756597 2.7239289 10197915
-1.5315261 0.10808362 2.7226253 10197915
-1.4809484 0.10860177 2.7213194 10197915
-1.431425 0.1091091 2.7200406 10197915
-1.3818554 0.10961689 2.718761 10197915
-1.3454772 0.10998952 2.7178216 10197915
-1.2616163 0.11050074 2.6638739 10197915
-1.2334404 0.1107893 2.6631334 10197915
-1.1835586 0.11130016 2.6618218 10197915
-1.1336309 0.11181145 2.6605093 10197915
-1.0836577 0.11232322 2.6591957 10197915
-1.0336381 0.11283544 2.6578801 10197915
-0.98357278 0.11334817 2.6565638 10197915
-0.93346167 0.11386137 2.6552463 10197915
-0.88330442 0.11437503 2.6539278 10197915
-0.83419323 0.11487798 2.6526365 10197915
-0.78503758 0.11538138 2.6513443 10197915
-0.73474371 0.1158964 2.6500208 10197915
-0.6844036 0.11641195 2.6486979 10197915
-0.63401735 0.11692797 2.6473737 10197915
-0.58358479 0.11744445 2.6460474 10197915
-0.53420365 0.11795017 2.6447501 10197915
-0.48477754 0.11845632 2.6434498 10197915
-0.4342072 0.11897419 2.6421194 10197915
-0.38359025 0.11949257 2.6407886 10197915
-0.3340286 0.12000015 2.6394861 10197915
-0.28442186 0.12050817 2.6381819 10197915
-0.23366648 0.12102797 2.6368477 10197915
-0.18396933 0.12153688 2.6355407 10197915
-0.1342268 0.12204628 2.6342325 10197915
-0.084439605 0.12255616 2.6329236 10197915
-0.034607038 0.12306651 2.6316135 10197915
0.015270382 0.1235773 2.6303022 10197915
0.06519334 0.12408857 2.6289899 10197915
0.1162723 0.12461165 2.6276464 10197915
0.16628653 0.12512383 2.6263313 10197915
0.21523342 0.1256251 2.6250446 10197915
0.26533782 0.12613823 2.6237273 10197915
0.31548744 0.12665182 2.6224089 10197915
0.36568296 0.12716588 2.6210892 10197915
0.41592374 0.12768038 2.6197677 10197915
0.46509245 0.12818389 2.6184754 10197915
0.51542407 0.12869933 2.617152 10197915
0.56580126 0.12921527 2.6158278 10197915
0.61510336 0.12972017 2.6145318 10197915
0.66557175 0.13023703 2.613205 10197915
-1.9677722 0.10397401 2.7873814 10197915
-1.9288406 0.10437297 2.7863955 10197915
-1.8787464 0.10488632 2.7851272 10197915
-1.8286058 0.10540015 2.7838581 10197915
-1.7784184 0.10591442 2.7825871 10197915
-1.7293013 0.1064178 2.7813437 10197915
-1.6790218 0.10693299 2.7800701 10197915
-1.628696 0.1074487 2.7787952 10197915
-1.5794433 0.10795344 2.7775483 10197915
-1.5290246 0.10847008 2.7762721 10197915
-1.4920229 0.10884927 2.7753353 10197915
-1.3201072 0.11024942 2.7171662 10197915
-1.2814773 0.11064516 2.7161691 10197915
-1.2317713 0.11115436 2.7148862 10197915
-1.1809138 0.11167534 2.7135732 10197915
-1.1311164 0.11218551 2.7122881 10197915
-1.0812725 0.11269612 2.7110012 10197915
-1.0313838 0.11320715 2.709713 10197915
-0.98144889 0.11371869 2.7084234 10197915
-0.93146878 0.1142307 2.7071333 10197915
-0.88144273 0.11474317 2.7058415 10197915
-0.83137083 0.11525615 2.7045498 10197915
-0.7812525 0.11576956 2.7032554 10197915
-0.73108864 0.11628344 2.7019606 10197915
-0.68199515 0.11678635 2.7006929 10197915
-0.63173997 0.1173012 2.6993959 10197915
-0.58143902 0.11781647 2.6980972 10197915
-0.53221083 0.11832079 2.6968267 10197915
-0.4818179 0.118837 2.6955247 10197915
-0.43137884 0.11935371 2.6942227 10197915
-0.38201582 0.1198594 2.6929483 10197915
-0.33148474 0.12037703 2.6916444 10197915
-0.28090742 0.12089518 2.6903386 10197915
-0.23140885 0.12140226 2.6890609 10197915
-0.18186551 0.12190977 2.6877813 10197915
-0.13227764 0.12241774 2.6865008 10197915
-0.081516266 0.12293776 2.6851904 10197915
-0.030708343 0.12345825 2.6838789 10197915
0.019016042 0.12396765 2.6825955 10197915
0.068785377 0.12447751 2.6813111 10197915
0.11859972 0.12498779 2.6800249 10197915
0.16845903 0.12549853 2.6787367 10197915
0.21836352 0.12600976 2.6774487 10197915
0.26831323 0.12652148 2.6761594 10197915
0.31830812 0.12703364 2.6748688 10197915
0.36834833 0.12754627 2.6735771 10197915
0.41843382 0.12805931 2.6722836 10197915
0.46856481 0.12857287 2.6709895 10197915
0.51874125 0.1290869 2.6696939 10197915
0.56896335 0.12960137 2.6683979 10197915
0.61923087 0.13011634 2.6671004 10197915
0.66267979 0.13056146 2.6659789 10197915
-2.0114844 0.1038999 2.8441334 10197915
-1.9763312 0.10426027 2.8432615 10197915
-1.9263992 0.10477213 2.8420227 10197915
-1.8764213 0.10528445 2.8407829 10197915
-1.8263972 0.10579724 2.8395422 10197915
-1.7763268 0.10631052 2.8383 10197915
-1.7296284 0.10678922 2.8371415 10197915
-1.4673396 0.10910222 2.7747099 10197915
-1.4291703 0.10949335 2.7737439 10197915
-1.3786113 0.11001144 2.7724628 10197915
-1.3280064 0.11053 2.7711816 10197915
-1.2784801 0.11103754 2.7699277 10197915
-1.2289087 0.11154553 2.7686722 10197915
-1.1792924 0.11205398 2.7674162 10197915
-1.1296307 0.11256289 2.7661586 10197915
-1.0787927 0.11308383 2.7648711 10197915
-1.0279081 0.11360527 2.7635832 10197915
-0.97810829 0.1141156 2.7623215 10197915
-0.92826331 0.1146264 2.7610598 10197915
-0.87837195 0.11513766 2.7597966 10197915
-0.82843578 0.11564938 2.758532 10197915
-0.77845335 0.11616156 2.757266 10197915
-0.72842526 0.11667421 2.7559988 10197915
-0.67835164 0.11718734 2.7547312 10197915
-0.62823224 0.11770094 2.7534623 10197915
-0.57806671 0.11821505 2.7521923 10197915
-0.52785534 0.11872958 2.7509208 10197915
-0.47874051 0.11923286 2.7496762 10197915
-0.42958161 0.11973661 2.7484317 10197915
-0.37923384 0.12025256 2.7471569 10197915
-0.3288399 0.12076899 2.7458811 10197915
-0.27839971 0.12128586 2.7446036 10197915
-0.2290612 0.12179146 2.7433548 10197915
-0.17967799 0.12229749 2.7421036 10197915
-0.12910062 0.1228158 2.7408226 10197915
-0.078476653 0.12333456 2.7395411 10197915
-0.02895847 0.12384199 2.7382874 10197915
0.020604745 0.12434991 2.7370327 10197915
0.071366593 0.12487009 2.7357471 10197915
0.12101983 0.12537891 2.7344897 10197915
0.17071813 0.12588818 2.7332311 10197915
0.22161846 0.12640978 2.7319422 10197915
0.27140719 0.12691998 2.7306814 10197915
0.32124123 0.12743066 2.7294202 10197915
0.37111992 0.1279418 2.728157 10197915
0.42104393 0.12845339 2.7268922 10197915
0.46985003 0.12895352 2.725656 10197915
0.68670517 0.13080756 2.6653585 10197915
0.69814992 0.13092479 2.6650627 10197915
-2.0558121 0.10383449 2.903157 10197915
-2.0303712 0.10409536 2.902539 10197915
-1.7045553 0.10704622 2.8365192 10197915
-1.6760458 0.10733847 2.8358121 10197915
-1.6258364 0.10785317 2.8345668 10197915
-1.5755804 0.10836836 2.8333201 10197915
-1.5252776 0.10888401 2.832072 10197915
-1.4760731 0.10938843 2.8308518 10197915
-1.4268239 0.10989324 2.8296294 10197915
-1.3763827 0.11041031 2.8283784 10197915
-1.3258954 0.11092786 2.827126 10197915
-1.2753609 0.1114459 2.8258727 10197915
-1.2259299 0.1119526 2.8246465 10197915
-1.1764531 0.11245979 2.8234189 10197915
-1.1257797 0.11297925 2.8221614 10197915
-1.0762123 0.11348732 2.8209317 10197915
-1.0265998 0.11399592 2.8197007 10197915
-0.97578716 0.11451679 2.8184409 10197915
-0.92608339 0.1150263 2.8172078 10197915
-0.87633431 0.11553632 2.8159742 10197915
-0.8253811 0.1160586 2.8147099 10197915
-0.77554023 0.1165695 2.8134727 10197915
-0.72565377 0.1170809 2.8122356 10197915
-0.67572194 0.11759273 2.8109965 10197915
-0.62574434 0.11810507 2.809757 10197915
-0.57572144 0.11861786 2.8085158 10197915
-0.52565229 0.11913113 2.8072748 10197915
-0.47553766 0.11964481 2.8060305 10197915
-0.42654419 0.12014705 2.8048153 10197915
-0.37633854 0.12066171 2.8035703 10197915
-0.32608742 0.12117685 2.8023238 10197915
-0.27578998 0.12169244 2.8010757 10197915
-0.22544663 0.12220851 2.7998271 10197915
-0.17622928 0.122713 2.7986054 10197915
-0.12579434 0.12323003 2.7973547 10197915
-0.075313494 0.12374748 2.7961025 10197915
-0.025961623 0.12425341 2.794878 10197915
0.023434475 0.12475979 2.793653 10197915
0.074052803 0.12527867 2.7923975 10197915
0.12471731 0.12579799 2.7911401 10197915
0.17424873 0.12630574 2.7899113 10197915
0.21319625 0.12670499 2.7889452 10197915
0.49426788 0.12920377 2.7250383 10197915
0.52102721 0.12947795 2.7243605 10197915
0.57108659 0.12999095 2.7230935 10197915
0.62119156 0.1305044 2.7218246 10197915
0.6713416 0.13101834 2.7205551 10197915
0.70635551 0.13137713 2.7196684 10197915
-2.0060766 0.10434452 2.9019496 10197915
-1.9736646 0.10467689 2.9011629 10197915
-1.9226949 0.10519956 2.8999257 10197915
-1.8728369 0.10571085 2.8987167 10197915
-1.8229328 0.10622258 2.8975055 10197915
-1.772983 0.1067348 2.8962929 10197915
-1.7229865 0.10724746 2.8950787 10197915
-1.6729445 0.10776064 2.8938649 10197915
-1.6228559 0.10827429 2.8926489 10197915
-1.5727215 0.10878839 2.8914323 10197915
-1.5225403 0.10930297 2.8902144 10197915
-1.472313 0.10981804 2.8889952 10197915
-1.4232082 0.11032154 2.8878028 10197915
-1.3728888 0.11083758 2.8865817 10197915
-1.3225229 0.11135403 2.8853595 10197915
-1.2732835 0.11185899 2.8841646 10197915
-1.2228248 0.11237643 2.8829401 10197915
-1.17232 0.11289434 2.8817148 10197915
-1.1229439 0.11340064 2.8805149 10197915
-1.0735232 0.11390743 2.8793156 10197915
-1.0228792 0.11442676 2.8780868 10197915
-0.97218883 0.11494657 2.8768563 10197915
-0.92263132 0.11545476 2.8756537 10197915
-0.87302893 0.11596343 2.8744504 10197915
-0.82338148 0.11647252 2.8732448 10197915
-0.77368861 0.11698209 2.8720381 10197915
-0.72395086 0.11749214 2.870831 10197915
-0.67298174 0.11801481 2.8695943 10197915
-0.62196553 0.11853795 2.868356 10197915
-0.57208949 0.11904942 2.8671458 10197915
-0.52216804 0.11956131 2.8659339 10197915
-0.47220105 0.12007368 2.8647206 10197915
-0.42218858 0.12058657 2.863507 10197915
-0.37213051 0.1210999 2.8622918 10197915
-0.32202655 0.12161371 2.8610766 10197915
-0.27307171 0.12211571 2.8598883 10197915
-0.22407287 0.12261817 2.8586986 10197915
-0.1738337 0.12313332 2.8574786 10197915
-0.13193373 0.12356301 2.856462 10197915
0.23799591 0.12695922 2.7883301 10197915
0.27344522 0.1273226 2.787451 10197915
0.3231104 0.12783171 2.7862189 10197915
0.3740046 0.12835345 2.7849569 10197915
0.42494524 0.12887563 2.7836919 10197915
0.47474682 0.12938613 2.7824564 10197915
0.52459329 0.12989712 2.78122 10197915
0.57448471 0.13040854 2.7799826 10197915
0.62442124 0.13092045 2.778744 10197915
0.67440277 0.13143282 2.7775044 10197915
0.71489584 0.13184789 2.7765 10197915
-2.1019807 0.10376653 2.964632 10197915
-2.0701206 0.10409334 2.9638767 10197915
-2.0193462 0.10461421 2.9626727 10197915
-1.9697059 0.10512345 2.9614959 10197915
-1.9200196 0.10563315 2.9603179 10197915
-1.870288 0.10614334 2.9591384 9935001
-1.8205103 0.10665396 2.9579582 10197915
-1.7706869 0.10716502 2.9567759 10197915
-1.7208178 0.10767663 2.9555941 10197915
-1.6709027 0.10818868 2.9544103 10197915
-1.6209419 0.10870117 2.9532259 10197915
-1.5709348 0.10921417 2.95204 9015704
-1.5208818 0.10972764 2.9508536 3692667
-1.4707819 0.11024155 2.9496646 9737622
-1.4206363 0.11075595 2.9484754 10197915
-1.3704445 0.11127085 2.9472854 10197915
-1.3202064 0.1117862 2.9460945 10197915
-1.2699215 0.11230206 2.9449022 10197915
-1.2195907 0.11281838 2.9437091 10197915
-1.1692128 0.11333515 2.9425137 10197915
-1.1199895 0.11384007 2.9413466 10197915
-1.0707216 0.11434548 2.9401786 10197915
-1.020206 0.11486371 2.9389803 10197915
-0.96964365 0.1153824 2.9377816 10197915
-0.91903442 0.11590155 2.9365816 10197915
-0.8695851 0.11640885 2.9354095 10197915
-0.82009017 0.11691655 2.9342351 10197915
-0.7693423 0.11743713 2.933032 10197915
-0.71975726 0.11794579 2.9318559 10197915
-0.6701268 0.11845492 2.9306793 10197915
-0.61923939 0.11897695 2.9294727 10197915
-0.56951821 0.119487 2.9282939 10197915
-0.54282141 0.11976087 2.9276609 10197915
-0.1067784 0.12382096 2.8558517 10197915
-0.073217541 0.1241651 2.855037 10197915
-0.022840336 0.12468171 2.8538146 10197915
0.027582958 0.12519878 2.8525908 10197915
0.076850101 0.12570399 2.8513949 10197915
0.12616172 0.12620965 2.850198 10197915
0.17672159 0.12672812 2.8489707 10197915
0.22732787 0.12724705 2.8477423 10197915
0.27677387 0.12775411 2.8465424 10197915
0.32626456 0.12826163 2.8453414 10197915
0.37700817 0.12878199 2.84411 10197915
0.42779839 0.12930277 2.8428764 10197915
0.47742417 0.12981167 2.8416719 10197915
0.52709496 0.13032103 2.8404665 10197915
0.57681 0.13083082 2.8392596 10197915
0.62657005 0.1313411 2.838052 10197915
0.67759013 0.13186429 2.8368142 10197915
0.72379082 0.13233806 2.8356931 10197915
-1.5534338 -0.75936663 3.036494 5263440
-1.5538188 -0.72335511 3.0362537 5066061
-1.5543499 -0.67368072 3.035923 5263440
-1.5547986 -0.62353104 3.0355709 5395026
-1.5540919 -0.57178837 3.0349782 4868682
-1.5546235 -0.52210605 3.034647 4868682
-1.5551548 -0.47241992 3.0343156 4868682
-1.5551299 -0.42695662 3.0339119 4210752
-1.5548705 -0.37300131 3.0333872 3158064
-1.5554019 -0.32330731 3.0330558 3158064
-1.5559204 -0.27485207 3.032733 1980241
-2.147696 0.10372039 3.0286543 10197915
-2.116379 0.10404177 3.0279298 10197915
-2.066962 0.1045489 3.0267873 10197915
-2.017499 0.10505651 3.0256431 10197915
-1.9667829 0.10557699 3.0244708 10197915
-1.9160193 0.10609792 3.0232968 2904443
-1.8664182 0.10660697 3.0221491 8159880
-1.8167709 0.10711642 3.0210001 10197915
-1.7670792 0.10762636 3.019851 10197915
-1.7173414 0.10813679 3.0187008 10197915
-1.666343 0.10866015 3.0175214 10197915
-1.6165131 0.10917154 3.0163684 10197915
-1.5666367 0.10968338 3.0152152 3364993
-1.5167147 0.11019568 3.01406 7041916
-1.4667463 0.11070844 3.0129042 10132122
-1.4167328 0.11122168 3.0117478 10197915
-1.3666726 0.11173543 3.0105896 8293273
-1.3165669 0.11224963 3.0094309 7503758
-1.2664144 0.11276431 3.0082712 10197915
-1.2162162 0.11327948 3.0071101 10197915
-1.1671969 0.11378247 3.0059755 10197915
-1.1169068 0.11429857 3.0048122 10197915
-1.0665705 0.11481512 3.0036478 10197915
-0.51732266 0.12002242 2.9270556 10197915
-0.46993956 0.12050848 2.9259322 10197915
-0.42008209 0.12101994 2.9247501 10197915
-0.37017983 0.12153187 2.9235668 10197915
-0.32023171 0.12204425 2.9223828 10197915
-0.27023846 0.1225571 2.9211969 10197915
-0.22019932 0.12307041 2.9200106 10197915
-0.17011486 0.12358417 2.9188221 10197915
-0.11998448 0.12409844 2.9176342 10197915
-0.069808751 0.12461314 2.9164438 10197915
-0.019586816 0.12512837 2.9152534 10197915
0.030680612 0.12564403 2.9140618 10197915
0.079766363 0.12614755 2.9128973 10197915
0.13012493 0.12666413 2.9117031 10197915
0.18052913 0.12718117 2.9105077 10197915
0.22974858 0.1276861 2.9093409 10197915
0.28024432 0.12820409 2.9081438 10197915
0.33078593 0.12872258 2.9069452 10197915
0.38013959 0.12922888 2.9057751 10197915
0.4295373 0.1297356 2.9046037 10197915
0.48021594 0.13025545 2.9034007 10197915
0.53094089 0.13077582 2.9021986 10197915
0.58047354 0.13128394 2.9010243 10197915
0.63005066 0.13179253 2.8998487 10197915
0.67967218 0.13230157 2.8986726 10197915
0.72933811 0.13281107 2.8974948 10197915
0.75667161 0.13309145 2.8968468 10197915
-1.8904157 -0.76190037 3.1031148 5658198
-1.8556072 -0.76133865 3.0962303 5658198
-1.8056936 -0.76073229 3.0863602 5723991
-1.7563739 -0.76089257 3.0766151 5658198
-1.706895 -0.76021981 3.0668306 5723991
-1.6576531 -0.75955105 3.0570927 5789784
-1.6074955 -0.7593081 3.0471776 5789784
-1.5621762 -0.75929677 3.0417824 5197647
-1.8895805 -0.72561443 3.1026311 6447714
-1.8560917 -0.72500378 3.0960066 6447714
-1.8063571 -0.72434354 3.0861721 6447714
-1.7565589 -0.72452444 3.0763321 6447714
-1.7072505 -0.72393751 3.0665822 6447714
-1.6580883 -0.72321641 3.0568602 6447714
-1.6078838 -0.72320116 3.0469382 6447714
-1.5624504 -0.72269511 3.0415325 4868682
-1.8899773 -0.67474425 3.1022632 6447714
-1.8564916 -0.67522544 3.0956492 6447714
-1.8068705 -0.67433423 3.085835 6447714
-1.7571681 -0.67442644 3.0760128 6447714
-1.7077827 -0.67402899 3.0662494 6447714
-1.6586206 -0.6731503 3.0565257 6447714
-1.6084185 -0.67339504 3.046607 6447714
-1.5629945 -0.67223322 3.0411584 4868682
-1.8906302 -0.62486887 3.1019542 6447714
-1.8569869 -0.62530375 3.0953074 6447714
-1.8074135 -0.624461 3.0855045 6447714
-1.7577128 -0.62425476 3.0756793 6447714
-1.7083423 -0.62404716 3.0659204 6447714
-1.658941 -0.62289661 3.0561473 6447714
-1.6088235 -0.62369925 3.0462501 6447714
-1.5634916 -0.62203908 3.0408237 4868682
-1.8904939 -0.57664746 3.1015038 6447714
-1.8577102 -0.57509464 3.0950117 6447714
-1.8078309 -0.57472521 3.0851495 6447714
-1.7582576 -0.57407975 3.0753472 6447714
-1.7088205 -0.5741325 3.065578 6447714
-1.6583946 -0.57302564 3.0556028 6447714
-1.6082546 -0.57358313 3.0456972 6447714
-1.5636655 -0.57240433 3.0402038 5000268
-1.890216 -0.5257287 3.101002 6447714
-1.8582608 -0.52467406 3.0946777 6447714
-1.8081882 -0.52505803 3.0847843 6447714
-1.7588015 -0.52390063 3.0750153 6447714
-1.7093788 -0.52428192 3.0652502 6447714
-1.6589329 -0.52308971 3.05527 6447714
-1.6087613 -0.52349263 3.0453589 6447714
-1.5641944 -0.52264261 3.0398664 5000268
-1.8907686 -0.47522616 3.1006682 6447714
-1.8590602 -0.47459382 3.0943954 6447714
-1.8088804 -0.47517195 3.0844836 6447714
-1.7593457 -0.47371784 3.0746818 6447714
-1.7098522 -0.47442958 3.0649059 6447714
-1.6594708 -0.47314972 3.054939 6447714
-1.6092696 -0.47339851 3.0450187 6447714
-1.5646811 -0.47279352 3.0395408 4934475
-1.8913221 -0.42472002 3.1003342 6447714
-1.8593767 -0.42501014 3.0940225 6447714
-1.8094923 -0.42493305 3.0841641 6447714
-1.7599541 -0.42359948 3.074362 6447714
-1.7104342 -0.42457116 3.0645845 6447714
-1.66001 -0.42320603 3.0546057 6447714
-1.609782 -0.42323154 3.044678 6447714
-1.5649683 -0.42254078 3.0390129 5000268
-1.8908057 -0.37639326 3.099808 6447714
-1.8596084 -0.37549624 3.0936339 6447714
-1.8100398 -0.37462229 3.0838308 6447714
-1.7605813 -0.37368536 3.0740473 6447714
-1.7110397 -0.37456918 3.0642645 6447714
-1.6605464 -0.37325874 3.0542734 6447714
-1.610229 -0.3729243 3.0443268 6447714
-1.5652707 -0.37316379 3.0385408 5066061
-1.8898575 -0.32532048 3.0991726 6447714
-1.8593354 -0.32568291 3.093143 6447714
-1.8105884 -0.32430735 3.0834975 6447714
-1.7610624 -0.32398009 3.0737066 6447714
-1.7115816 -0.32449502 3.0639319 6447714
-1.6610848 -0.32330769 3.0539417 6447714
-1.6106507 -0.32254556 3.043968 6447714
-1.5622854 -0.32034293 3.0438499 4539717
-1.8899341 -0.2971136 3.0989394 6513507
-1.8593642 -0.29644108 3.0928926 6513507
-1.8109031 -0.29537487 3.0833061 6513507
-1.7592145 -0.29485416 3.0738595 6513507
-1.7112787 -0.29455286 3.0661132 6513507
-1.6611434 -0.29367802 3.0576813 6513507
-1.6032779 -0.2821925 3.0441415 5005686
-1.5617769 -0.27312604 3.0445819 3690600
-1.5915906 -0.22207768 3.0393195 3171736
-1.5621735 -0.22233514 3.0431068 3627128
-1.5921245 -0.17228688 3.0389888 2909079
-1.5626924 -0.17223264 3.0428805 3232630
-1.5926583 -0.12249243 3.0386565 2448018
-1.5631917 -0.12240238 3.0425959 2641010
-1.5931921 -0.072694227 3.0383251 2316689
-1.56372 -0.072514147 3.0422537 2180975
-1.5937259 -0.022892274 3.0379932 2184846
-1.5642486 -0.022622457 3.0419118 1984366
-1.5942601 0.02691341 3.0376613 2119308
-1.5647775 0.027272694 3.0415707 1786731
-1.5947939 0.076722823 3.0373299 1987208
-1.5653064 0.077171303 3.0412292 1523046
-2.1953907 0.10367225 3.0954492 10197915
-2.1634095 0.10400056 3.0947289 10197915
-2.1129436 0.10451868 3.0935922 10197915
-2.0636628 0.10502462 3.0924826 10197915
-2.0131032 0.1055437 3.0913444 10197915
-1.9624962 0.10606324 3.090205 3036286
-1.913078 0.10657062 3.0890918 6516088
-1.8636138 0.10707839 3.0879772 10066329
-1.8141048 0.10758665 3.0868623 10197915
-1.7633111 0.10810813 3.0857184 10197915
-1.7124704 0.10863008 3.0845735 10197915
-1.6628232 0.10913978 3.0834553 10197915
-1.6092727 0.1070074 3.0553746 5336719
-1.5656106 0.1058644 3.0410326 2114410
-1.017417 0.11531957 3.0025117 10197915
-0.96698838 0.11583708 3.0013456 10197915
-0.91651338 0.11635508 3.0001783 10197915
-0.86722451 0.11686087 2.9990377 10197915
-0.81665665 0.11737979 2.9978673 10197915
-0.76604259 0.11789923 2.9966972 10197915
-0.71661776 0.11840641 2.995554 10197915
-0.66714829 0.11891413 2.9944103 10197915
-0.61763376 0.11942224 2.9932649 10197915
-0.56683505 0.11994357 2.99209 10197915
-0.51598912 0.1204653 2.9909132 10197915
-0.46633792 0.12097484 2.9897652 10197915
-0.41664177 0.12148485 2.9886153 10197915
-0.36690038 0.1219953 2.9874651 10197915
-0.31711411 0.12250622 2.9863138 10197915
-0.26728246 0.12301762 2.9851618 10197915
-0.21740568 0.12352946 2.9840071 10197915
-0.16748345 0.12404174 2.982852 10197915
-0.11751597 0.12455454 2.9816964 10197915
-0.067503005 0.12506779 2.9805403 10197915
-0.017444596 0.1255815 2.9793825 10197915
0.032659397 0.12609568 2.978224 10197915
0.082808957 0.12661032 2.9770637 10197915
0.13300423 0.12712541 2.9759026 10197915
0.18324523 0.12764099 2.9747403 10197915
0.23353204 0.12815706 2.9735773 10197915
0.28386474 0.12867358 2.9724131 10197915
0.3342433 0.12919059 2.9712477 10197915
0.38340658 0.1296951 2.9701109 10197915
0.43261397 0.1302001 2.9689729 10197915
0.48312831 0.13071845 2.9678035 10197915
0.53368896 0.13123733 2.9666348 10197915
0.58429593 0.13175668 2.9654641 10197915
0.63368195 0.1322635 2.9643219 10197915
0.6831125 0.13277076 2.9631791 10197915
0.7338562 0.1332915 2.9620051 10197915
0.76686281 0.13363025 2.9612417 10197915
-1.9856499 -0.76331413 3.1219485 5460819
-1.9546757 -0.76221907 3.1158183 5658198
-1.9155951 -0.76209104 3.1080925 5592405
-1.9858761 -0.7265653 3.1216705 6447714
-1.9540085 -0.72540802 3.1153624 6447714
-1.9132982 -0.72586232 3.1073205 6447714
-1.9864893 -0.67608559 3.1213477 6447714
-1.9544237 -0.67556471 3.115006 6447714
-1.9136689 -0.67569661 3.1069534 6447714
-1.9870484 -0.62535632 3.1210134 6447714
-1.95445 -0.6260457 3.1145782 6447714
-1.9142228 -0.6251443 3.1066191 6447714
-1.391672 -0.61149406 3.1263113 9450805
-1.3670747 -0.61064422 3.1217482 8991796
-1.9875934 -0.57589173 3.1206877 6447714
-1.9553232 -0.57602084 3.114311 6447714
-1.9144275 -0.57457054 3.1062152 6447714
-1.3907943 -0.5705604 3.1257596 6783650
-1.3676056 -0.57000411 3.1214919 3036802
-1.9881384 -0.52642334 3.1203604 6447714
-1.9559463 -0.52543133 3.1139901 6447714
-1.9137083 -0.52578223 3.1056459 6447714
-1.3912351 -0.52034295 3.1253884 7179436
-1.3679047 -0.52003098 3.1210861 3103880
-1.9886975 -0.47568271 3.1200261 6447714
-1.9566491 -0.47561017 3.113692 6447714
-1.9144638 -0.47595078 3.1053576 6447714
-1.3917527 -0.47029814 3.1250322 6719146
-1.3686427 -0.47001845 3.1207938 3169673
-1.9892435 -0.42620695 3.1196992 6447714
-1.956687 -0.42615116 3.1132634 6447714
-1.9150186 -0.42538694 3.1050231 6447714
-1.3922698 -0.42025021 3.1246765 6193576
-1.3689456 -0.42004105 3.1203918 3038088
-1.9897883 -0.37672728 3.1193728 6447714
-1.957525 -0.37589774 3.1129887 6447714
-1.914444 -0.37447429 3.1044621 6447714
-1.3912077 -0.37029228 3.1240034 5405348
-1.3687366 -0.3704794 3.1199455 2775174
-1.9903486 -0.32597527 3.1190386 6513507
-1.9580818 -0.32522419 3.1126556 6447714
-1.9147189 -0.32547966 3.1040871 6447714
-1.5405793 -0.30814978 3.1063125 2763306
-1.390547 -0.3200812 3.12341 4682400
-1.368662 -0.31991032 3.1194818 2512003
-1.9909617 -0.27546409 3.1187167 4220043
-1.9598734 -0.27542895 3.1241426 3821928
-1.9116198 -0.29541659 3.1145024 6184542
-1.8582057 -0.29266286 3.1227031 5197647
-1.8083179 -0.29216865 3.1189075 4605510
-1.7583696 -0.29166907 3.1158104 4144959
-1.7084469 -0.29116505 3.1134179 3421236
-1.6597973 -0.29068834 3.1089392 2763563
-1.6286258 -0.29046121 3.0944197 2829874
-1.5448411 -0.2920602 3.1070075 2039583
-1.3910646 -0.27003118 3.123054 3959707
-1.3693454 -0.26988798 3.1191776 2248319
-1.991392 -0.22599187 3.1183677 3894172
-1.9612318 -0.22602603 3.1247613 3363182
-1.3915821 -0.21997823 3.1226988 3368343
-1.3697044 -0.21989964 3.1187923 2116990
-1.9919989 -0.17623416 3.1180506 3434135
-1.9617863 -0.17579041 3.1243312 2968684
-1.3920994 -0.1699222 3.1223431 3105686
-1.3703545 -0.16973135 3.1184773 2249088
-1.9925588 -0.12546676 3.1177158 2907536
-1.9622672 -0.12533481 3.1240346 2442857
-1.3913199 -0.12004656 3.1217275 2776980
-1.3707805 -0.11972902 3.1181104 2183808
-1.9931048 -0.075964861 3.1173887 2579086
-1.9627057 -0.075697891 3.1239033 2048614
-1.3917547 -0.069785833 3.1213541 2514066
-1.3713522 -0.069563545 3.1177747 2117759
-1.9936501 -0.026459204 3.1170619 2447500
-1.9633313 -0.026073636 3.1233366 1851750
-1.3922727 -0.019724373 3.1209977 2250638
-1.3718733 -0.019543126 3.1174304 1985916
-1.9942099 0.024319643 3.1167266 2315912
-1.9638746 0.02462133 3.1229794 1654371
-1.3927771 0.029056378 3.1206524 2053002
-1.3723813 0.029197887 3.1170933 1788024
-1.9947551 0.07383275 3.116401 2315142
-1.9643135 0.074257404 3.1228492 1522272
-1.3927906 0.078024976 3.1202042 2316172
-1.3729018 0.07922484 3.116749 1589107
-1.9950632 0.10176471 3.1162162 2774923
-1.9646623 0.10237338 3.1225393 2113636
-1.5484636 0.11031383 3.0808797 9869208
-1.5136082 0.11067164 3.0800943 10197915
-1.463779 0.1111832 3.0789723 10066329
-1.4046106 0.11039253 3.0958321 6322838
-1.3692833 0.11020951 3.0996003 2313340
-1.3140157 0.11272074 3.0756001 5727088
