# .PCD v0.7 - Point Cloud Data file format
VERSION 0.7
FIELDS x y z rgb
SIZE 4 4 4 4
TYPE F F F U
COUNT 1 1 1 1
WIDTH 1169
HEIGHT 1
VIEWPOINT 0 0 0 1 0 0 0
POINTS 1169
DATA ascii
-0.15372473 -0.374993 1.7019324 1849170
-0.12498812 -0.37499002 1.7143836 1849169
-0.075483695 -0.37501681 1.7358358 1980498
-0.046843428 -0.37594074 1.7482444 2046034
-0.80750638 -0.32515925 1.7325706 2894892
-0.15371189 -0.32505423 1.7019726 1520463
-0.12503578 -0.32496375 1.7143991 1585999
-0.075514138 -0.32501271 1.7358501 1651535
-0.047091674 -0.32504511 1.7481726 1585485
-0.80685651 -0.2746931 1.7311767 2894892
-0.70968229 -0.26991439 1.7011091 1059398
-0.15371485 -0.27499694 1.7020055 1454670
-0.12497351 -0.27497461 1.7144591 1454670
-0.075518921 -0.27502719 1.7358904 1520463
-0.047059365 -0.27507296 1.7482203 1585998
-0.80621696 -0.22502731 1.7298043 2894892
-0.71073169 -0.22514072 1.7036241 1059397
-0.15371786 -0.22493763 1.7020382 1586512
-0.12503098 -0.22498314 1.714468 1586512
-0.075497165 -0.22501849 1.7359388 1652304
-0.047093496 -0.22510779 1.7482401 1717840
-0.80557853 -0.17544048 1.7284347 2894892
-0.71189874 -0.17531654 1.7064216 1059396
-0.15438256 -0.17474894 1.7017854 1389133
-0.12499768 -0.1749514 1.714518 1454670
-0.075530313 -0.17505054 1.7359489 1454926
-0.047061183 -0.17513096 1.7482885 1454926
-0.80493188 -0.12521496 1.727047 2894892
-0.71307021 -0.12532939 1.7092296 993604
-0.15440176 -0.12479197 1.7018116 1586511
-0.12497059 -0.12497535 1.7145635 1652047
-0.075447641 -0.12503776 1.7360154 1652047
-0.047095314 -0.12516272 1.7483081 1586511
-0.80428606 -0.075070038 1.7256616 2894892
-0.71424574 -0.075176634 1.7120473 1058883
-0.15440483 -0.074735619 1.7018439 1388876
-0.12513253 -0.074862272 1.7145276 1322827
-0.075645477 -0.075169817 1.735975 1256778
-0.047063012 -0.075181149 1.7483561 1257034
-0.80364138 -0.025005512 1.7242782 2894892
-0.71542507 -0.024859075 1.7148744 1059138
-0.15440781 -0.024677267 1.7018768 1520717
-0.12496856 -0.024862248 1.7146331 1257291
-0.075468399 -0.025173228 1.7360822 1059656
-0.04709715 -0.025209865 1.7483752 1059913
-0.80299783 0.02497882 1.7228976 2894892
-0.71659154 0.024913123 1.7176706 992832
-0.1544107 0.024677899 1.7019093 1388875
-0.12497105 0.024862876 1.7146668 1191240
-0.075469941 0.025173923 1.7361087 1059399
-0.04709807 0.025210531 1.7484096 1125192
-0.80235517 0.074883156 1.7215188 2894892
-0.71776175 0.074847899 1.7204757 794685
-0.15441373 0.074740082 1.7019428 992836
-0.12513489 0.074847117 1.7146295 1058885
-0.075649977 0.075174384 1.7360692 1124934
-0.047065768 0.075185701 1.7484577 1190727
-1.3602313 0.11388651 1.7235411 10197915
-1.3249931 0.11388611 1.7180096 10197915
-1.2728809 0.11386278 1.7248045 10197915
-1.225093 0.1138459 1.7280594 10197915
-1.1748471 0.11383303 1.7282779 10197915
-1.1253037 0.1138219 1.7274668 9934743
-1.0900546 0.11383515 1.7129244 8158332
-0.80406892 0.11076477 1.7334282 8750469
-0.77424812 0.1137346 1.7272105 10197915
-0.73206502 0.11280166 1.7219133 8028037
-0.15441521 0.10717535 1.7019587 1518664
-0.12442941 0.10743519 1.7139006 1978443
-0.074833676 0.10801071 1.7323875 2833492
-0.031624112 0.11143145 1.7313538 7370624
0.024995264 0.1135402 1.7238322 10197915
0.074968785 0.11352863 1.7232435 10197915
0.12493955 0.11351581 1.7234617 10197915
0.17489541 0.11350423 1.7228727 10197915
0.22484088 0.11349143 1.7230912 10197915
0.27501562 0.1134795 1.7227063 10197915
0.32493809 0.11346732 1.7225158 10197915
0.37485439 0.11345509 1.7223366 10197915
0.42475542 0.11344295 1.7221459 10197915
0.47465032 0.11343076 1.7219666 10197915
0.52500582 0.11341815 1.7219777 10197915
0.57511467 0.11340654 1.7213904 10197915
0.62497282 0.11339375 1.7216086 10197915
0.67505956 0.11338185 1.7212242 10197915
0.7249009 0.11336969 1.7210342 10197915
0.7721535 0.11334985 1.7263319 10197915
0.82486373 0.11332899 1.7314045 10197915
0.87497985 0.11331676 1.7312176 10197915
0.92508209 0.113305 1.7307246 10197915
0.97517234 0.11329231 1.7308441 10197915
1.0252563 0.11328008 1.7306575 10197915
1.0753294 0.11326785 1.7304707 10197915
1.1250302 0.11325596 1.7301302 10197915
1.1747245 0.11324361 1.7300999 10197915
1.2251199 0.11323155 1.7297612 10197915
1.2755061 0.113219 1.7297239 10197915
1.3251667 0.11320711 1.7293842 10197915
1.3640709 0.11319198 1.7329599 10197915
-0.83321702 -0.80057096 1.7909192 2894892
-0.8328802 -0.77503425 1.7901952 2894892
-0.83221745 -0.72476608 1.7887703 2894892
-0.73852479 -0.71802688 1.7667356 1454410
-0.021158664 -0.71823955 1.7591388 3030868
0.025047589 -0.71827018 1.7791612 3359831
0.061747041 -0.71823561 1.7950633 3622744
-0.83155537 -0.67457747 1.7873476 2894892
-0.73958802 -0.67507774 1.7692789 1520202
-0.021113761 -0.67500168 1.7591891 2965332
0.025080197 -0.67498815 1.7792056 3425880
0.061723862 -0.67496586 1.7950832 3688794
-0.83090448 -0.62521631 1.7859483 2894892
-0.74083221 -0.62481761 1.7722554 1454153
-0.021144846 -0.62502629 1.7592103 3031125
0.025043299 -0.62500781 1.7792226 3294296
0.06171013 -0.62500155 1.7951112 3491417
-0.8302446 -0.57518625 1.7845302 2894892
-0.74206287 -0.5751102 1.7751991 1388105
-0.021140695 -0.57505119 1.7592446 2768211
0.025067698 -0.57500362 1.7792679 3096661
0.061753131 -0.57498753 1.795164 3294038
-0.82958585 -0.52523518 1.7831144 2894892
-0.7432974 -0.52523655 1.7781525 1322569
-0.021139646 -0.52502292 1.7592802 2702933
0.025092538 -0.52497548 1.779313 2965589
0.061733507 -0.5250203 1.7951901 3031382
-0.82892817 -0.47536379 1.7817008 2894892
-0.74453616 -0.47519761 1.781116 1256520
-0.021119669 -0.47496763 1.759323 2505812
0.025028497 -0.47498935 1.7793195 2768726
0.061710734 -0.47505164 1.7952142 2834005
-0.82826167 -0.42482859 1.7802681 2894892
-0.74577904 -0.42499065 1.7840894 1124934
-0.021142069 -0.42496032 1.7593474 2308948
0.025087722 -0.42502269 1.779379 2440276
0.06173294 -0.42498001 1.7952584 2571347
-0.82760596 -0.37511584 1.7788588 2894892
-0.74702597 -0.37461671 1.7870724 1124678
-0.021687584 -0.37480724 1.7591443 2111826
0.025078684 -0.37501025 1.7794107 2243155
0.061742928 -0.37500852 1.7952965 2440275
-0.82695115 -0.32548189 1.7774515 2894892
-0.74825847 -0.32480696 1.7900209 1190727
-0.021847246 -0.32498515 1.7591106 1651021
0.025055258 -0.32499632 1.7794343 1782606
0.061744317 -0.32503271 1.7953323 1914190
-0.82628775 -0.27518731 1.7760255 2894892
-0.75006056 -0.25200248 1.794332 1257033
-0.74944073 -0.27704218 1.7928491 1191240
-0.021914911 -0.27499667 1.7591177 1586255
0.025020182 -0.27502435 1.7794527 1717327
0.061670646 -0.27495721 1.7953342 1848399
-0.82562566 -0.22497348 1.7746021 2894892
-0.75073671 -0.22469324 1.7959492 1257289
-0.021830371 -0.22503006 1.7591864 1717840
0.025071368 -0.22498493 1.7795098 1783632
0.061679479 -0.22520739 1.7953725 1914961
-0.82496446 -0.17483999 1.7731811 2894892
-0.7518903 -0.17809381 1.7987095 1257288
-0.02190553 -0.17501354 1.7591878 1454926
0.025100579 -0.1749215 1.7795569 1586255
0.060914159 -0.17508796 1.7950749 1783632
-0.82430434 -0.12478673 1.7717623 2894892
-0.021752093 -0.12499431 1.7592901 1652047
0.025032416 -0.12500843 1.7795614 1652047
0.060992729 -0.12494253 1.7951432 1652046
-0.82364541 -0.074813515 1.770346 2894892
-0.02197258 -0.074805804 1.7592289 1257034
0.025041264 -0.075116158 1.7795995 1257034
0.060993917 -0.075115725 1.7951781 1257034
-0.8229875 -0.024920128 1.768932 2894892
-0.021827035 -0.024781389 1.7593241 1125449
0.025119308 -0.02506794 1.7796677 1191241
0.060995087 -0.025286922 1.7952132 1191497
-0.82233065 0.024893612 1.7675201 2894892
-0.02182743 0.024782052 1.7593586 1124935
0.025119811 0.025068594 1.7797025 1125192
0.060996264 0.02528757 1.7952478 1125192
-0.82167482 0.074627891 1.7661105 2894892
-0.021973824 0.074810371 1.7593306 1190983
0.025042711 0.075120673 1.7797036 1191240
0.060997516 0.075120285 1.7952828 1257289
-1.4114043 0.11379986 1.7891062 10197915
-1.3737465 0.11381406 1.7735395 10197915
-1.3250183 0.11380358 1.7724291 10197915
-1.2775464 0.11378508 1.7768033 10197915
-1.2247951 0.11376226 1.7831711 10197915
-1.1747997 0.11375034 1.7828109 10197915
-1.1360627 0.11374503 1.7799236 8750469
-0.81596357 0.11222409 1.7795978 9474192
-0.77490759 0.11365253 1.7814506 9935000
-0.74493587 0.11365806 1.7728624 6318710
-0.021288386 0.10687647 1.7596414 1387336
0.025357395 0.10748214 1.778618 2242384
0.065778911 0.10881945 1.7893089 4214883
0.12448185 0.11343314 1.7780122 10197915
0.1749182 0.11342109 1.7776561 10197915
0.22534379 0.11340856 1.7776269 10197915
0.27502376 0.11339669 1.7772688 10197915
0.32469037 0.11338431 1.7772466 10197915
0.37471789 0.1133721 1.7770559 10197915
0.42509824 0.11336007 1.7766995 10197915
0.47547126 0.11334755 1.7766703 10197915
0.52509606 0.11333568 1.7763126 10197915
0.57471108 0.11332335 1.776291 10197915
0.62505114 0.11331129 1.7759353 10197915
0.67537785 0.11329876 1.7759062 10197915
0.72532994 0.11328659 1.7757154 10197915
0.7748999 0.11327475 1.7753577 10197915
0.82483178 0.11326258 1.7751719 10197915
0.87511224 0.11325005 1.7751423 10197915
0.92502147 0.1132379 1.7749517 10197915
0.97491974 0.11322572 1.7747608 10197915
1.0251683 0.1132137 1.7744056 10197915
1.0754137 0.11320121 1.7743767 10197915
1.1249086 0.11318939 1.7740195 10197915
1.1747649 0.11317723 1.7738338 10197915
1.2249703 0.11316472 1.7738047 10197915
1.2748041 0.11315256 1.7736143 10197915
1.3249921 0.11314058 1.7732593 10197915
1.3751676 0.11312807 1.7732308 10197915
1.4090745 0.11310516 1.7827399 10197915
-0.85399175 -0.81133091 1.8388474 2894892
-0.85350192 -0.7750833 1.8377926 2894892
-0.8528254 -0.72501898 1.8363358 2894892
0.086771369 -0.71832436 1.8059072 3819865
0.12534095 -0.7183032 1.8226181 4017499
0.16940133 -0.71832818 1.8417109 4345947
-0.85214967 -0.67503351 1.8348809 2894892
0.086801551 -0.67502487 1.8059479 3885915
0.12536778 -0.67499036 1.8226585 4083292
0.16938519 -0.67497647 1.8417345 4346204
-0.8514753 -0.62512738 1.8334287 2894892
0.086780325 -0.62499285 1.8059744 3688537
0.12535454 -0.62500095 1.8226892 3951451
0.16939427 -0.62501162 1.841772 4149084
-0.85079163 -0.57453424 1.8319564 2894892
0.086798511 -0.5749985 1.8060167 3425366
0.12534958 -0.57498586 1.8227224 3622488
0.16939576 -0.57504475 1.8418068 3819865
-0.85022265 -0.53243345 1.8307313 2894892
-0.84989184 -0.50796419 1.8300194 2894892
0.086806692 -0.52500468 1.8060546 3162711
0.12534404 -0.52499193 1.822753 3359832
0.16940913 -0.52501208 1.8418478 3557209
-0.84944797 -0.47511831 1.8290635 2894892
0.086786546 -0.47500697 1.8060799 2900054
0.12536778 -0.47499603 1.8227973 3162711
0.16937095 -0.47501031 1.8418641 3294296
-0.8487674 -0.42476571 1.8275981 2894892
0.086793467 -0.42504942 1.8061172 2702676
0.12533195 -0.4249751 1.8228159 2768468
0.16942586 -0.42500508 1.8419226 2834260
-0.84808809 -0.3744936 1.8261354 2894892
0.086817935 -0.37500679 1.8061625 2505812
0.12538718 -0.37499943 1.8228747 2505812
0.16938353 -0.37499836 1.841939 2571604
-0.8474201 -0.32506165 1.8246969 2894892
0.086794242 -0.32496333 1.8061855 1979726
0.12534924 -0.3250449 1.8228916 1914190
0.16939795 -0.32499087 1.8419797 2045519
-0.84675324 -0.27570796 1.823261 2894892
0.086756341 -0.27504009 1.8062053 1651020
0.12531365 -0.27501813 1.8229121 1717069
0.16944183 -0.27494779 1.8420329 1783119
-0.84607714 -0.22567418 1.8218052 2894892
0.086703092 -0.2248455 1.8062156 1914961
0.12541479 -0.22501314 1.8229883 1783632
0.16870795 -0.22515726 1.841749 1849169
-0.84539187 -0.17496417 1.8203297 2894892
-0.75249594 -0.15363139 1.8001578 1257289
0.08600565 -0.17491904 1.8059474 1783632
0.12540504 -0.17505233 1.8230172 1718096
0.16869649 -0.17502877 1.841779 1717840
-0.84470773 -0.12433586 1.8188565 2894892
-0.75319481 -0.12540101 1.8018295 1191496
0.086019024 -0.12502985 1.8059876 1652047
0.12533596 -0.12497247 1.8230239 1586511
0.16868511 -0.12500285 1.8418077 1586511
-0.84403497 -0.074543394 1.817408 2894892
-0.75444841 -0.074764833 1.8048283 1125446
0.086102098 -0.074899159 1.8060573 1257034
0.12534314 -0.074868418 1.8230618 1257034
0.16852114 -0.075212434 1.8417706 1257034
-0.84336323 -0.024830213 1.8159616 2894892
-0.75568759 -0.024708591 1.8077931 993861
0.086022243 -0.024772085 1.8060586 1125705
0.12542769 -0.024924897 1.8231325 1125705
0.16866189 -0.025181016 1.8418664 1125449
-0.84269238 0.024803896 1.814517 2894892
-0.75691217 0.024761988 1.8107229 861763
0.086024113 0.024772719 1.8060926 1125191
0.12543041 0.024925515 1.8231659 1125448
0.16866551 0.02518166 1.8419014 1125448
-0.84201276 0.075109154 1.8130534 2894892
-0.75814098 0.074393168 1.8136621 795457
0.086107045 0.074903689 1.8061633 1257289
0.12535045 0.074872822 1.823168 1191497
0.1685283 0.075183861 1.8418769 1191753
-1.4578878 0.11373051 1.8424187 10197915
-1.4240659 0.11373977 1.8307455 10197915
-1.3749759 0.11372863 1.8299977 10197915
-1.3251765 0.11371622 1.8299851 10197915
-1.2750025 0.11370398 1.8297886 10197915
-1.2252207 0.11369213 1.8294101 10197915
-1.1778009 0.11368245 1.8279947 9737364
-1.1482053 0.11369114 1.8173865 2039583
-0.85225284 0.11358289 1.8400273 10197915
-0.82602495 0.11279056 1.8268236 9803157
-0.77815694 0.11239744 1.8242395 7962245
0.086067915 0.10700315 1.8061678 1584970
0.12570424 0.10730176 1.8222198 2176848
0.17063986 0.10818163 1.8376131 3360347
0.22479127 0.11333871 1.823729 10197915
0.27500167 0.1133262 1.823709 10197915
0.3248325 0.11331405 1.8235135 10197915
0.3750307 0.1133021 1.8231395 10197915
0.42521203 0.11328959 1.8231198 10197915
0.47501063 0.11327744 1.8229243 10197915
0.52517295 0.11326549 1.8225507 10197915
0.57532513 0.11325301 1.8225309 10197915
0.62509173 0.11324086 1.8223357 10197915
0.67521846 0.11322892 1.8219619 10197915
0.7253415 0.11321644 1.8219423 10197915
0.77507579 0.1132043 1.8217474 10197915
0.82516682 0.11319236 1.8213739 10197915
0.87526095 0.11317988 1.8213544 10197915
0.92533183 0.11316797 1.8209811 10197915
0.97540283 0.11315548 1.8209615 10197915
1.0254534 0.11314353 1.8205882 10197915
1.0755008 0.11313108 1.8205688 10197915
1.1251607 0.11311898 1.820374 10197915
1.1751761 0.11310706 1.820001 10197915
1.2251951 0.11309458 1.8199815 10197915
1.2751901 0.11308267 1.8196089 10197915
1.325186 0.1130702 1.8195894 10197915
1.3751613 0.1130583 1.8192165 10197915
1.4225917 0.113044 1.8208404 10197915
1.4533441 0.11302102 1.830925 10197915
-0.87590981 -0.82268471 1.8894131 2236962
-0.87525088 -0.77513593 1.8879915 2236962
-0.87455994 -0.72528636 1.8865014 2236962
-0.78237396 -0.71813983 1.8679315 1782861
0.19413686 -0.71843749 1.8524287 4477532
0.22492993 -0.71833622 1.8657719 4608860
0.2752797 -0.71840036 1.8875891 4543068
0.30214205 -0.7183736 1.8992289 4477788
-0.87385929 -0.67472571 1.8849899 2236962
-0.78350538 -0.67500097 1.8706323 1782861
0.19419011 -0.67503363 1.8524821 4477789
0.22495902 -0.67498654 1.865814 4609117
0.27525413 -0.67501003 1.88761 4674653
0.30214715 -0.67510968 1.8992612 4543325
-0.87317055 -0.62503403 1.8835042 2236962
-0.7848193 -0.62489849 1.8737693 1782861
0.19415157 -0.62494093 1.8524997 4280412
0.22492489 -0.62500471 1.8658333 4346461
0.27526492 -0.62502515 1.8876435 4411997
0.30215296 -0.62476403 1.899298 4346204
-0.87248302 -0.57542109 1.8820211 2500134
-0.78613758 -0.57462758 1.8769169 1783118
0.19419058 -0.57495731 1.8525506 3951194
0.224953 -0.57502019 1.8658805 4017242
0.27527943 -0.57501274 1.8876868 4083291
0.30217221 -0.57480508 1.8993406 4017499
-0.87178558 -0.52510029 1.8805166 2500134
-0.78744048 -0.52495348 1.8800274 1783374
0.1941804 -0.52497095 1.8525805 3688538
0.22492628 -0.52505881 1.8659021 3754330
0.27526581 -0.52497178 1.8877193 3688794
0.30215123 -0.52525133 1.8993652 3623002
-0.87108934 -0.47485989 1.8790147 2500134
-0.78874683 -0.47511339 1.8831463 1717069
0.19414891 -0.47487435 1.8526013 3360088
0.22494444 -0.47504538 1.8659446 3360088
0.27531832 -0.47498128 1.8877709 3294295
0.30217049 -0.47528869 1.899408 3228503
-0.87039423 -0.42469957 1.8775153 2500134
-0.79005796 -0.42510837 1.8862765 1519691
0.19423029 -0.42488185 1.8526706 2768724
0.22498293 -0.42500618 1.8659965 2834260
0.2753109 -0.4249886 1.8878019 2834261
0.30217642 -0.42493534 1.8994451 2768724
-0.86970007 -0.37461939 1.8760183 2500134
-0.79137367 -0.37493634 1.889418 1453642
0.1941493 -0.37500316 1.8526696 2571604
0.22496383 -0.37498879 1.8660225 2571604
0.27525961 -0.3750205 1.8878196 2571604
0.30218229 -0.37457991 1.8994821 2506067
-0.86900711 -0.32461905 1.8745235 2500134
-0.79269385 -0.32459772 1.8925699 1322570
0.19423044 -0.32489544 1.8527396 2045519
0.2249812 -0.32499576 1.8660632 2045776
0.27533263 -0.32504985 1.8878825 2111568
0.3021881 -0.32500941 1.8995184 2045519
-0.86831534 -0.2746982 1.8730311 2500134
-0.793998 -0.27486879 1.8956838 1322570
0.19416359 -0.27501395 1.8527447 1782862
0.22494407 -0.27499914 1.8660822 1848655
0.27533391 -0.27499932 1.8879139 1783119
0.30219397 -0.27543697 1.8995554 1783119
-0.86762428 -0.22485673 1.8715402 2697513
-0.79522455 -0.22810067 1.8986121 1322826
0.19350833 -0.2244534 1.8524959 1849425
0.22497846 -0.22502685 1.8661318 1849425
0.27530327 -0.22494681 1.8879393 1783633
0.30219981 -0.22507574 1.8995923 1718096
-0.86693448 -0.17509457 1.8700526 2697513
0.19340345 -0.17498136 1.8524845 1717840
0.22493909 -0.17502585 1.8661487 1717840
0.27525976 -0.17494488 1.8879558 1652304
0.30201027 -0.17833748 1.8995421 1586768
-0.8662461 -0.12541156 1.8685675 2697513
0.19340715 -0.12509868 1.85252 1586510
0.22510219 -0.125025 1.8662519 1586510
0.27528501 -0.12504603 1.8879962 1520461
0.30136624 -0.12511022 1.8992997 1389133
-0.86554784 -0.075033098 1.8670616 2697513
0.19341093 -0.075214125 1.8525558 1257290
0.22492628 -0.074823074 1.8662127 1257034
0.27538192 -0.075091816 1.8880738 1257034
0.30137208 -0.075539656 1.899336 1191498
-0.86485094 -0.024735378 1.8655581 2697513
0.19341467 -0.025327623 1.8525912 1125705
0.22499575 -0.024792623 1.8662766 1125449
0.27538693 -0.025031013 1.8881136 1125705
0.30137801 -0.025180321 1.8993733 1125705
-0.86416578 0.024709255 1.8640801 2697513
0.19341843 0.025328286 1.8526281 1125447
0.2250004 0.024793256 1.8663114 1059655
0.27539203 0.025031663 1.8881465 1125192
0.30138382 0.025180981 1.8994102 1125448
-0.86347097 0.074846134 1.8625813 2697513
0.19342223 0.075218633 1.852664 1191753
0.22493927 0.074827529 1.866321 1125447
0.27539814 0.07509625 1.888182 1125704
0.30138972 0.075544246 1.8994476 1191753
-1.5027462 0.11366624 1.8921742 10197915
-1.4718746 0.11367465 1.8815457 10197915
-1.4247245 0.11366629 1.8793006 10197915
-1.3747487 0.1136541 1.8790994 10197915
-1.3251785 0.11364233 1.8787004 10197915
-1.2752217 0.11363016 1.8785055 10197915
-1.2248956 0.11361758 1.8784957 10197915
-1.1901089 0.11361865 1.8720804 7697781
-0.86116672 0.11185035 1.8755304 9408399
-0.82496697 0.11352018 1.8768851 10197915
-0.7917102 0.11351908 1.8721311 8028038
0.19342461 0.10668886 1.8526864 1519434
0.22560544 0.1072262 1.8658878 2045006
0.27537572 0.10782486 1.8846749 2833748
0.32236135 0.11254919 1.875278 9211537
0.37497216 0.11322817 1.8718598 10197915
0.42494494 0.11321569 1.8718508 10197915
0.47491482 0.11320382 1.8714575 10197915
0.52486444 0.11319136 1.8714484 10197915
0.57481456 0.11317948 1.8710551 10197915
0.6251294 0.11316663 1.8712372 10197915
0.67543828 0.11315499 1.8706497 10197915
0.72535372 0.11314252 1.870641 10197915
0.7752521 0.11313065 1.8702476 10197915
0.82514417 0.11311822 1.8702393 10197915
0.87502283 0.11310636 1.869846 10197915
0.92489189 0.11309392 1.8698374 10197915
0.97475058 0.11308206 1.8694443 10197915
1.0245965 0.11306962 1.8694357 10197915
1.0748216 0.11305739 1.8692337 10197915
1.1254171 0.11304534 1.8688375 10197915
1.1752346 0.11303293 1.8688293 10197915
1.2250373 0.11302109 1.8684362 10197915
1.2748317 0.11300867 1.868428 10197915
1.3246154 0.11299682 1.8680353 10197915
1.3751577 0.11298422 1.8680239 10197915
1.4253072 0.112972 1.8678219 10197915
1.4691066 0.11295639 1.8709004 10197915
-0.89942712 -0.859972 1.9436156 2039583
-0.89892811 -0.82489252 1.9425378 2039583
-0.89822072 -0.77519107 1.941009 2039583
-0.89751476 -0.72556818 1.939483 2039583
0.32679462 -0.71842748 1.9099125 4345947
0.37517425 -0.71842682 1.9308741 4017242
0.41037184 -0.71845025 1.9461265 3754072
-0.89679861 -0.67521143 1.9379352 2039583
0.3267689 -0.67500788 1.9099301 4346204
0.37517065 -0.67502069 1.9309032 4083035
0.40954283 -0.6751157 1.9457966 3885658
-0.89608347 -0.62493527 1.9363902 2039583
0.32680091 -0.62502342 1.9099752 4214876
0.37517267 -0.62499511 1.930938 3886171
0.40951955 -0.6250723 1.945821 3754586
-0.89536947 -0.57473916 1.9348472 2039583
0.32679975 -0.57500833 1.9100106 3885658
0.37520701 -0.57499379 1.9309871 3491160
0.40948737 -0.5751037 1.9458412 3359831
-0.89465654 -0.52462298 1.9333074 2039583
0.3268258 -0.52499038 1.9100605 3557209
0.37517375 -0.52499181 1.9310076 3425881
0.40953529 -0.52513295 1.9458966 3294296
-0.89394528 -0.47458646 1.9317698 2039583
0.32682773 -0.47500116 1.91009 3162967
0.37521905 -0.47498691 1.9310609 3031639
0.40952328 -0.4750793 1.945925 2965846
-0.89323437 -0.42462954 1.9302338 2039583
0.32681438 -0.42503831 1.9101199 2768468
0.37518439 -0.42498049 1.9310795 2637140
0.40955123 -0.4250246 1.9459711 2505811
-0.89252502 -0.37475196 1.928701 2039583
0.32683104 -0.37501577 1.9101665 2440275
0.37524149 -0.37502763 1.9311385 2374483
0.40953362 -0.37496746 1.9459982 2308947
-0.89181691 -0.32495347 1.9271704 2039583
0.32677075 -0.32496092 1.9101715 1979983
0.37520334 -0.32504475 1.9311569 1914190
0.40956715 -0.32490823 1.9460471 1848398
-0.89110982 -0.27523413 1.9256423 2039583
0.32693771 -0.27499229 1.9102746 1782862
0.37528491 -0.27500516 1.9312252 1651533
0.40957493 -0.27492762 1.9460837 1651277
-0.89040369 -0.22559345 1.9241167 2039583
-0.79588014 -0.20310284 1.9001774 1323082
0.32682896 -0.22505248 1.9102669 1718096
0.37524399 -0.22499032 1.9312432 1585998
0.40958306 -0.22494507 1.9461225 1387850
-0.88968724 -0.17523284 1.9225682 2039583
-0.79661942 -0.1749184 1.9019423 1323082
0.32651705 -0.17482735 1.9101647 1652303
0.37524825 -0.17497547 1.9312794 1454926
0.40959087 -0.17496073 1.9461594 1322827
-0.88897198 -0.12495276 1.9210229 2039583
-0.79793656 -0.12469529 1.9050868 1323338
0.32594982 -0.12488173 1.9099498 1389133
0.37534574 -0.12498357 1.931355 1389133
0.4095988 -0.12497437 1.9461979 1388877
-0.8882581 -0.074753925 1.9194801 2039583
-0.79923737 -0.075094886 1.9081926 1257289
0.32616037 -0.075029962 1.9100771 1257034
0.3751114 -0.074801557 1.9312888 1191498
0.40960687 -0.074986018 1.9462359 1257034
-0.88754541 -0.024635207 1.9179399 2039583
-0.8006047 -0.022959173 1.9114573 1191239
-0.79994088 -0.048265427 1.9098725 1257033
0.32593632 -0.025155304 1.9100173 1060169
0.37531936 -0.024804916 1.9314138 1125705
0.40961492 -0.024995781 1.9462739 1125705
-0.88683385 0.025402715 1.9164022 2039583
-0.80185193 0.024593538 1.9144347 1059141
0.32594246 0.025155976 1.9100504 1125448
0.37532663 0.024805557 1.9314502 1125448
0.40962258 0.02499642 1.9463111 1125448
-0.88612336 0.075360887 1.9148673 2039583
-0.80316556 0.07468316 1.9175712 927299
0.32617944 0.07503444 1.9101876 1191753
0.37513334 0.074806102 1.9314004 1257545
0.4096306 0.074990548 1.9463491 1257545
-1.5196935 0.1136052 1.9351348 10197915
-1.4752027 0.11360019 1.93112 10197915
-1.4250534 0.11358829 1.930702 10197915
-1.3749077 0.11357576 1.9307048 10197915
-1.324778 0.11356388 1.9302875 10197915
-1.2746557 0.11355137 1.9302903 10197915
-1.2322974 0.11354644 1.9265598 8947848
-0.87343895 0.11250459 1.9281846 9539985
-0.82518333 0.1125436 1.9253259 8291209
0.32621336 0.10686964 1.9099332 1848141
0.37595451 0.10753141 1.9292758 2637140
0.41619679 0.10936403 1.9362806 5135467
0.47480917 0.11312553 1.9230514 10197915
0.52533937 0.11311355 1.9226328 10197915
0.57506353 0.11310115 1.922637 10197915
0.62477827 0.11308934 1.9222213 10197915
0.67527455 0.11307675 1.9222218 10197915
0.72536659 0.11306454 1.9220146 10197915
0.77504528 0.11305277 1.9215993 10197915
0.82511759 0.11304058 1.9213927 10197915
0.87477267 0.11302818 1.9213965 10197915
0.9248215 0.11301599 1.9211892 10197915
0.97525507 0.11300401 1.9207715 10197915
1.0248817 0.11299163 1.9207752 10197915
1.0748982 0.11297945 1.9205683 10197915
1.125296 0.1129675 1.9201503 10197915
1.1752925 0.11295532 1.9199435 10197915
1.2248729 0.11294293 1.9199476 10197915
1.2748463 0.11293078 1.9197408 10197915
1.3252039 0.11291885 1.9193233 10197915
1.374756 0.11290646 1.919327 10197915
1.4246972 0.11289429 1.9191206 10197915
1.4750184 0.11288235 1.9187034 10197915
1.5151392 0.11286441 1.9239353 10197915
-0.92373115 -0.85828334 1.9997162 2039583
-0.92324072 -0.82470995 1.9986541 2039583
-0.92250603 -0.77441192 1.9970639 2039583
-0.92178464 -0.72503 1.995502 2039583
-0.83155185 -0.71826637 1.9814242 2899539
0.4353776 -0.71846259 1.9569608 3556694
0.47518352 -0.71847433 1.9742119 3293781
0.51759183 -0.7184487 1.9925852 3162453
-0.92106444 -0.67572582 1.993943 2039583
-0.8327601 -0.67491508 1.9843029 2899539
0.43446639 -0.67495942 1.9565965 3622745
0.47520643 -0.67498535 1.9742508 3425623
0.51759678 -0.67497009 1.9926163 3228502
-0.92033309 -0.62566471 1.99236 2039583
-0.83415067 -0.62498826 1.987617 2834003
0.43450773 -0.62498266 1.9566481 3425880
0.47524944 -0.62498456 1.9743019 3228502
0.51761603 -0.62501603 1.99266 3031381
-0.91960311 -0.575683 1.9907794 2039583
-0.83554673 -0.57489532 1.9909434 2637138
0.43450913 -0.57491535 1.9566833 3228246
0.47520515 -0.57501137 1.9743191 3162453
0.51761353 -0.57501769 1.9926935 2899539
-0.91886204 -0.52494979 1.9891753 2039583
-0.83694774 -0.5246343 1.9942816 2439761
0.4344908 -0.52489191 1.9567101 3097174
0.47522283 -0.52500618 1.9743598 2965589
0.51677638 -0.52508575 1.9923646 2768468
-0.91812205 -0.47429767 1.9875735 2039583
-0.83833069 -0.47501981 1.9975771 2177104
0.43448234 -0.47491157 1.95674 2834260
0.47523022 -0.47502902 1.9743958 2702675
0.5166769 -0.47502592 1.9923559 2505555
-0.91739553 -0.42455587 1.9860004 2039583
-0.83917171 -0.44485179 1.9995811 2045776
0.43456253 -0.42492911 1.9568084 2440275
0.4752709 -0.42504972 1.9744502 2308690
0.51673514 -0.4250513 1.9924158 2177104
-0.91667002 -0.37489259 1.98443 2039583
0.43455431 -0.37494406 1.9568402 2243154
0.47526577 -0.37503961 1.9744816 2111568
0.51674342 -0.37502742 1.9924538 1914190
-0.91594577 -0.32530776 1.9828622 2039583
0.43450508 -0.32495809 1.9568524 1782862
0.47524503 -0.32502556 1.9745059 1782862
0.51672935 -0.32495826 1.9924812 1783118
-0.91521055 -0.27497703 1.9812702 2039583
0.43455324 -0.27501565 1.9569081 1585741
0.4753029 -0.27495027 1.9745641 1585741
0.51678395 -0.27497607 1.9925395 1585741
-0.91447651 -0.22472662 1.9796815 2039583
0.43460098 -0.22502467 1.9569627 1519948
0.47526389 -0.22499427 1.974582 1388107
0.51669884 -0.22499315 1.9925365 1256521
-0.91375571 -0.17537877 1.978121 2039583
0.43459815 -0.17498679 1.9569961 1322827
0.4753522 -0.17503558 1.9746541 1256521
0.51673526 -0.17510112 1.9925864 1256521
-0.91302401 -0.12528834 1.9765365 2039583
0.43451205 -0.12517515 1.9569931 1388876
0.47517151 -0.12489503 1.9746108 1323340
0.51692295 -0.12520202 1.9927026 1323083
-0.91229337 -0.075277641 1.9749551 2039583
0.43454844 -0.075314574 1.9570422 1191498
0.47554004 -0.074988902 1.9748051 1191241
0.51668924 -0.074852899 1.9926349 1191241
-0.91156405 -0.025347359 1.9733762 2039583
0.43460855 -0.025134858 1.9571038 1191497
0.47518894 -0.025092959 1.9746879 1125448
0.51682007 -0.02476681 1.9927267 1059399
-0.91082418 0.025319938 1.9717745 2039583
0.43461701 0.025135517 1.9571413 1125704
0.47519889 0.025093608 1.9747263 1125448
0.51683021 0.024767432 1.9927655 1059142
-0.91009706 0.075090021 1.9702008 2039583
0.43457368 0.075319201 1.9571575 1257289
0.47556809 0.074993499 1.9749203 1257289
0.51671928 0.074857317 1.9927514 1125190
-1.5582925 0.11355241 1.9763013 10197915
-1.524839 0.1135299 1.9856348 10197915
-1.4749037 0.11351741 1.9856521 10197915
-1.424989 0.11350559 1.9852101 10197915
-1.375077 0.11349311 1.9852275 10197915
-1.3251812 0.11348134 1.9847853 10197915
-1.2775118 0.11347174 1.9832553 9737364
-1.2466816 0.11348315 1.9706711 5263440
-0.9093917 0.11120404 1.9827102 8158332
-0.87534469 0.11337189 1.9828715 10197915
-0.8398664 0.11336936 1.9786898 8357001
0.43482727 0.10693595 1.9572873 1716812
0.47534853 0.10717867 1.9734681 2374225
0.51972097 0.10833863 1.9878316 3754847
0.57492197 0.11301883 1.9769309 10197915
0.62522238 0.11300695 1.9764882 10197915
0.67469144 0.11299454 1.9765066 10197915
0.72456306 0.11298242 1.9762939 10197915
0.7748273 0.11297054 1.9758518 10197915
0.82508546 0.11295797 1.9758667 10197915
0.87532979 0.1129461 1.9754241 10197915
0.92516035 0.11293398 1.975212 10197915
0.9749701 0.11292115 1.9754571 10197915
1.0247736 0.11290974 1.9747882 10197915
1.0749801 0.11289717 1.9748031 10197915
1.1251681 0.11288531 1.9743612 10197915
1.1749449 0.11287321 1.9741492 10197915
1.2251092 0.11286066 1.9741641 10197915
1.2752743 0.11284878 1.9737228 10197915
1.3250097 0.11283601 1.973968 10197915
1.3747375 0.11282462 1.9732993 10197915
1.4248685 0.11281206 1.9733142 10197915
1.4749806 0.11280021 1.9728726 10197915
1.5250884 0.11278768 1.972888 10197915
1.5629565 0.11276653 1.9805977 10197915
-0.91391212 -0.90376121 2.0284784 2039583
-0.88081819 -0.90701067 2.0428126 2039583
-0.91658717 -0.87511492 2.0267887 2039583
-0.8824628 -0.87504542 2.0421436 2039583
-0.9164151 -0.82496214 2.0274997 2039583
-0.88244182 -0.8249495 2.0422251 2039583
-0.91641694 -0.77495199 2.0275774 2039583
-0.88247335 -0.77495271 2.04228 1974047
-0.91646397 -0.72501117 2.0276189 2039583
-0.88248503 -0.72505444 2.0423455 1974047
0.54285377 -0.71850252 2.0035319 3031124
0.57507318 -0.71854579 2.0174921 2833746
0.62519246 -0.7185151 2.0392087 2570833
-0.91651261 -0.67506796 2.0276816 2039583
-0.88256466 -0.6750176 2.0423818 1974047
0.5428617 -0.67493582 2.0035648 3097174
0.57507366 -0.67503005 2.0175233 2965332
0.62519217 -0.67498583 2.0392385 2768467
-0.91649735 -0.62501186 2.0277462 2039583
-0.8825112 -0.62497836 2.0424776 1974047
0.54286426 -0.6249367 2.0036004 2899796
0.57503146 -0.6250211 2.0175385 2834260
0.62516773 -0.62499058 2.0392661 2571089
-0.91655791 -0.57495278 2.0277998 2039583
-0.88257998 -0.5749703 2.0425162 1974047
0.54286695 -0.57493639 2.0036359 2768211
0.57508421 -0.57501018 2.0175953 2637139
0.62521642 -0.57499385 2.0393183 2505811
-0.91658849 -0.52496427 2.0278463 2039583
-0.8831678 -0.52518672 2.0423338 1974047
0.54199207 -0.52480221 2.0032916 2702932
0.57504004 -0.5250293 2.017612 2637139
0.6251843 -0.52496165 2.0393372 2440019
-0.91655076 -0.47497308 2.0279434 2039583
-0.88329631 -0.47502148 2.0423484 2039583
0.54193974 -0.47500634 2.0033021 2440019
0.57512712 -0.47501442 2.017683 2374226
0.62478918 -0.47516796 2.0392058 2177361
-0.91661936 -0.42497802 2.0279748 2039583
-0.88342017 -0.42504281 2.0423627 2039583
-0.83987778 -0.41952002 2.0012634 1914447
0.54194313 -0.42503369 2.0033383 2111569
0.57509339 -0.42496482 2.0177021 2045776
0.62423652 -0.42500415 2.0389953 1980240
-0.9166773 -0.3750551 2.0280306 2039583
-0.88337028 -0.37499011 2.0424585 2039583
-0.84111053 -0.37529624 2.0042007 1782862
0.54198164 -0.37515098 2.0033894 1914191
0.5751195 -0.37494612 2.0177486 1848655
0.62430638 -0.37503621 2.0390596 1848655
-0.91664588 -0.32505423 2.0281048 2039583
-0.88341171 -0.3250061 2.0425076 2039583
-0.84250718 -0.3251856 2.007529 1585997
0.54201967 -0.32526535 2.0034401 1783119
0.57509249 -0.32498977 2.017771 1783119
0.62421006 -0.32496589 2.0390553 1783119
-0.91671371 -0.27497745 2.0281599 2039583
-0.88343227 -0.27505344 2.0425718 2039583
-0.84390897 -0.2749092 2.0108685 1519948
0.54203689 -0.27519321 2.0034816 1585741
0.57518739 -0.27499971 2.0178459 1585741
0.62437606 -0.27495965 2.03916 1585997
-0.91681576 -0.22497258 2.0281737 2039583
-0.88350469 -0.22495769 2.0426078 2039583
-0.84529185 -0.22529308 2.014164 1388619
0.54202014 -0.22502874 2.0035086 1190472
0.5751918 -0.22494201 2.0178826 1256264
0.62430489 -0.22502226 2.0391626 1322314
-0.91669387 -0.17485295 2.0283029 2039583
-0.88341808 -0.17503367 2.0427198 2039583
-0.84667951 -0.17551406 2.0174704 1322827
0.54198247 -0.17477243 2.0035272 1190728
0.57516807 -0.17497942 2.0179069 1190728
0.62429774 -0.175046 2.039197 1256777
-0.9166702 -0.12487503 2.0283785 2039583
-0.8836183 -0.12500571 2.0426998 2039583
-0.84807163 -0.12557134 2.0207877 1257034
0.54200637 -0.12460312 2.0035715 1323083
0.57505506 -0.12517774 2.0178916 1257291
0.62424356 -0.12486793 2.0392063 1323340
-0.91692793 -0.075232916 2.0283415 2039583
-0.88320804 -0.074914105 2.0427716 1974047
-0.84937501 -0.078811459 2.0238936 1125705
0.54204434 -0.07470683 2.0036228 1191241
0.57522929 -0.075242959 2.0180018 1190985
0.62452012 -0.075020172 2.0393591 1323083
-0.91681707 -0.025210867 2.0284529 2039583
-0.88256127 -0.025343137 2.0420859 1974048
0.54205537 -0.024902716 2.0036612 1191497
0.57524085 -0.025081422 2.0180416 1191497
0.62426859 -0.025180345 2.0392864 1191240
-0.91684508 0.025211841 2.0285208 2039583
-0.8830564 0.025139108 2.0420768 1974048
0.54206544 0.024903351 2.0036995 993606
0.57525331 0.025082082 2.0180793 1059398
0.62427932 0.025180981 2.0393243 1059398
-0.91700643 0.075203173 2.0285144 2039583
-0.88293916 0.075052723 2.0423746 1974048
0.54207605 0.07471133 2.0037384 861251
0.57523185 0.07521572 2.0181065 860994
0.62455732 0.075024642 2.0394766 795201
-1.6072763 0.11348447 2.0290849 10197915
-1.5737712 0.11349534 2.0164211 10197915
-1.5246254 0.11346436 2.0287256 10197915
-1.4748801 0.11345227 2.0285094 10197915
-1.4251454 0.11344019 2.0282931 10197915
-1.3745784 0.11342789 2.0280733 10197915
-1.324865 0.1134158 2.0278571 10197915
-1.289482 0.11340719 2.0277035 8289918
-0.91643006 0.10703672 2.0284605 2565927
-0.88193858 0.10752034 2.04021 3092529
0.54208273 0.1062573 2.0037632 1322568
0.57553583 0.10702885 2.0179543 1913933
0.62460309 0.10730472 2.0369537 2570834
0.67449307 0.11290775 2.0336916 10066586
0.72455335 0.1128952 2.0337231 10197915
0.77459598 0.11288342 2.0332537 10197915
0.82463259 0.11287086 2.0332847 10197915
0.87465566 0.1128591 2.0328157 10197915
0.92466885 0.11284657 2.0328474 10197915
0.97509408 0.1128343 2.0326262 10197915
1.0250802 0.11282253 2.0321572 10197915
1.0750653 0.11281001 2.0321879 10197915
1.1250319 0.11279824 2.0317192 10197915
1.1749934 0.1127857 2.0317504 10197915
1.2249405 0.11277397 2.0312822 10197915
1.2748787 0.11276143 2.0313134 10197915
1.3248062 0.11274968 2.0308449 10197915
1.3747211 0.11273716 2.0308759 10197915
1.4250486 0.11272493 2.0306561 10197915
1.4749393 0.11271319 2.0301881 10197915
1.5248264 0.11270067 2.0302186 10197915
1.5746974 0.11268894 2.0297508 10197915
1.6114912 0.11266223 2.0413079 10197915
-0.86017519 -0.90907282 2.0517533 1648180
-0.86103576 -0.87534332 2.0514278 1845558
-0.86178726 -0.82605147 2.0511718 2437952
-0.86257404 -0.77671719 2.0509005 3096399
-0.86317867 -0.72469598 2.0507116 3162965
0.67540812 -0.71858293 2.0609674 2373968
0.72466844 -0.71857083 2.0823135 2177104
0.75737321 -0.71861404 2.0964851 2111311
-0.86319131 -0.67500943 2.0507765 3097173
0.67538273 -0.67501521 2.0609858 2505810
0.72464776 -0.67498142 2.0823333 2242897
0.75738317 -0.67509168 2.0965195 2111568
-0.8632409 -0.62491143 2.0508251 2834517
0.67541087 -0.62502581 2.0610371 2373968
0.72467506 -0.62495768 2.0823808 2176847
0.75742012 -0.62505269 2.0965695 1913933
-0.86325347 -0.57521904 2.05089 2637395
0.67541993 -0.57503408 2.0610704 2242640
0.72468698 -0.5749321 2.0824199 2045519
0.75742131 -0.57501113 2.0966043 1979982
-0.86387652 -0.52339125 2.0506928 2241866
0.67543507 -0.52504212 2.06111 2243154
0.72471321 -0.52494043 2.0824661 2111825
0.75740063 -0.5250771 2.0966294 2045776
-0.86402225 -0.47491494 2.050698 2044487
0.64971024 -0.46201614 2.0500097 2111569
0.67546517 -0.47497863 2.0611629 2177105
0.72468382 -0.47505462 2.0824876 2046033
0.75741959 -0.47503319 2.0966721 2046033
-0.86404723 -0.42480215 2.0507579 1847622
0.64971977 -0.42465335 2.0500393 1980240
0.67542303 -0.42494833 2.0611768 1914447
0.7247507 -0.42509463 2.0825512 1848655
0.75749689 -0.42487684 2.0967395 1848655
-0.8640725 -0.37468624 2.0508177 1781314
0.64973235 -0.37455142 2.0500791 1783118
0.67549837 -0.37501779 2.06124 1782862
0.72475094 -0.37502524 2.0825849 1782862
0.75751597 -0.3748278 2.0967827 1717326
-0.8640812 -0.32512864 2.050884 1649985
0.64974475 -0.32529691 2.0501182 1848655
0.67543638 -0.32501704 2.0612552 1453642
0.72476035 -0.32498953 2.0826247 1321800
0.75748146 -0.32499555 2.096802 1387593
-0.86413872 -0.27501783 2.0509295 1584448
0.64975733 -0.27519128 2.050158 1651534
0.67550516 -0.27501476 2.0613141 1388105
0.72476721 -0.27495247 2.0826616 1387849
0.75745583 -0.27516273 2.0968249 1388105
-0.8641476 -0.22517119 2.0509958 1584449
0.64976984 -0.22508363 2.0501978 1388363
0.67546213 -0.22507744 2.0613279 1454412
0.72472173 -0.2249134 2.082674 1520205
0.75665253 -0.22537717 2.0965114 1586253
-0.86417288 -0.17504381 2.0510559 1518656
0.64978248 -0.17497404 2.0502379 1257034
0.67556477 -0.17507218 2.0614116 1322827
0.72475517 -0.17498036 2.0827239 1388875
0.75650835 -0.17457803 2.0964832 1388619
-0.86419821 -0.1249135 2.0511158 1518399
0.64979541 -0.12486256 2.0502779 1389389
0.67567325 -0.12502797 2.0614901 1455181
0.72482109 -0.12508169 2.0827863 1323596
0.75655413 -0.12494601 2.0965374 1389132
-0.86422324 -0.07478027 2.0511746 1387070
0.64980793 -0.07474906 2.0503178 1454924
0.67538363 -0.074783266 2.0613956 1389132
0.72486711 -0.075071916 2.0828424 1389131
0.7565068 -0.075445481 2.0965507 1323082
-0.86454523 -0.022979068 2.0511084 1386554
0.64982039 -0.02463364 2.0503573 1257033
0.6756041 -0.024767866 2.0615318 1257289
0.7248823 -0.025024392 2.0828815 1322569
0.75655228 -0.025189267 2.0966051 1256776
-0.86499131 0.024641346 2.0509822 1516851
0.6498329 0.024634264 2.0503964 1059398
0.67561764 0.024768503 2.0615699 1190983
0.72489554 0.025025038 2.0829232 1191240
0.756567 0.025189931 2.0966461 1125447
-0.86501664 0.074775681 2.0510423 1516594
0.64984554 0.074753545 2.0504365 860737
0.67542213 0.074787855 2.0615156 861250
0.72491032 0.075076409 2.0829637 926787
0.75655085 0.07545004 2.096673 860737
-1.6560576 0.11340489 2.0895755 10197915
-1.6222448 0.11341668 2.0762346 10197915
-1.5748295 0.11340836 2.0739248 10197915
-1.5252725 0.1133967 2.0734353 10197915
-1.4752839 0.11338455 2.0732243 10197915
-1.4248828 0.11337192 2.0732574 10197915
-1.3749179 0.11335977 2.0730355 10197915
-1.3285099 0.11335333 2.0696464 9474192
-1.2990038 0.1133645 2.0574203 2039583
-0.86503279 0.10706701 2.0510807 1911094
0.64985341 0.10618521 2.0504613 927299
0.67646307 0.10637703 2.0619919 1189957
0.7250331 0.10706222 2.082299 2044235
0.76359409 0.10899702 2.0899892 4608869
0.8257795 0.11280205 2.0784683 10197915
0.87562829 0.11278995 2.0782449 10197915
0.92546672 0.11277785 2.0780215 10197915
0.97529417 0.11276574 2.0777991 10197915
1.025111 0.11275363 2.0775754 10197915
1.0749171 0.11274155 2.0773525 10197915
1.1247125 0.11272945 2.0771296 10197915
1.174497 0.11271735 2.0769072 10197915
1.2242711 0.11270524 2.076684 10197915
1.2748924 0.11269296 2.0764577 10197915
1.3255025 0.11268067 2.076231 10197915
1.3752441 0.11266857 2.0760083 10197915
1.4249755 0.1126565 2.0757859 10197915
1.4746956 0.11264441 2.0755639 10197915
1.5244054 0.11263233 2.0753405 10197915
1.5749609 0.11262006 2.0751147 10197915
1.6255058 0.11260778 2.0748887 10197915
0.78327692 -0.71863943 2.1077092 2111568
0.82521307 -0.71867794 2.1258841 2111825
0.86474317 -0.71856606 2.1430097 1980240
0.78323942 -0.67499149 2.1077235 1979983
0.82530087 -0.67503536 2.1259491 1914447
0.86477435 -0.67488331 2.1430535 1914447
0.78312337 -0.62524575 2.107707 1913933
0.82508343 -0.62479913 2.1258879 1782861
0.86476654 -0.62498605 2.143084 1782861
0.78228939 -0.57507217 2.1073809 1848654
0.82424587 -0.57495314 2.1255605 1848654
0.86476165 -0.57502401 2.143116 1717325
0.78225195 -0.52504444 2.1073978 1980240
0.82424164 -0.52498972 2.1255939 1914704
0.86479205 -0.5249967 2.1431639 1782862
0.78230149 -0.47501594 2.1074543 1980496
0.82429904 -0.47498733 2.1256528 1980497
0.8648358 -0.47502989 2.1432173 1783119
0.78232521 -0.42503905 2.1074984 1783119
0.82427377 -0.42498425 2.125675 1717583
0.86483097 -0.42506111 2.143249 1717583
0.78230911 -0.37506244 2.1075251 1651534
0.82428992 -0.37497717 2.1257181 1651534
0.86482579 -0.37509087 2.1432815 1651790
0.78231949 -0.32497165 2.1075649 1256264
0.82429576 -0.32504335 2.125752 1256264
0.86485636 -0.32505628 2.1433287 1256264
0.7823236 -0.27493575 2.1076002 1322313
0.82436603 -0.2750327 2.1258183 1322313
0.86495817 -0.27501863 2.1434066 1256521
0.7815482 -0.2247906 2.1072991 1585997
0.82436663 -0.22498585 2.1258545 1520204
0.8649525 -0.22504172 2.1434391 1586253
0.78120732 -0.1750652 2.1071854 1323083
0.82428139 -0.17497106 2.1258497 1323083
0.86494464 -0.17500035 2.1434696 1388875
0.78137571 -0.12484267 2.1072931 1323339
0.82435971 -0.12514022 2.1259172 1389388
0.86482382 -0.1247084 2.1434522 1454924
0.7813921 -0.075081661 2.1073334 1323082
0.82449859 -0.074936964 2.1260142 1323082
0.86497045 -0.074595869 2.143549 1257546
0.78140628 -0.025318651 2.1073751 1191240
0.82435548 -0.024774479 2.1259851 1125191
0.86498684 -0.02486572 2.1435912 1059398
0.78142232 0.025319317 2.1074162 1125191
0.82440078 0.024737701 2.1260381 1059398
0.86500353 0.024866359 2.1436322 1059655
0.78143656 0.075086169 2.1074562 795201
0.82451808 0.074905515 2.1261253 860480
0.86502069 0.074600339 2.1436734 794944
-1.6687677 0.1133602 2.1211357 10197915
-1.6255581 0.1133497 2.120939 10197915
-1.5753039 0.11333749 2.1207108 10197915
-1.5250603 0.11332528 2.1204827 10197915
-1.4748275 0.1133131 2.1202545 10197915
-1.4246056 0.1133009 2.1200264 10197915
-1.3752754 0.11328892 2.1198022 10197915
-1.3435682 0.11328123 2.1196582 7105644
0.78165942 0.10660347 2.1074092 1846858
0.82470852 0.10742499 2.1238697 2504528
0.86873788 0.10823857 2.1368735 4082784
0.92498666 0.11270632 2.1252117 10197915
0.9750641 0.11269332 2.1255488 10197915
1.0251362 0.112682 2.124753 10197915
1.0752041 0.11266985 2.1245239 10197915
1.1248132 0.11265738 2.1245797 10197915
1.174857 0.11264524 2.1243508 10197915
1.2253246 0.11263341 2.1238365 10197915
1.2749059 0.11262095 2.1238928 10197915
1.3244768 0.11260936 2.1233833 10197915
1.3749118 0.11259666 2.123435 10197915
1.4253401 0.11258486 2.1229208 10197915
1.4748745 0.11257242 2.122977 10197915
1.5248433 0.11256029 2.1227484 10197915
1.5752337 0.11254843 2.1222351 10197915
1.6251832 0.11253633 2.1220057 10197915
1.671141 0.11251619 2.1277003 10197915
0.88957077 -0.71878755 2.1537666 1848911
0.92463428 -0.71870315 2.1689606 1717325
0.97359794 -0.71871954 2.1901789 1585997
0.88963187 -0.67517561 2.1538241 1783118
0.92464328 -0.67499721 2.1689947 1717325
0.97309691 -0.67528939 2.1899874 1651532
0.88963193 -0.62511891 2.1538582 1717068
0.92466182 -0.6249615 2.1690364 1717325
0.97253162 -0.62496716 2.189781 1783374
0.88966614 -0.57506168 2.1539071 1651276
0.92469656 -0.57500207 2.1690865 1717325
0.97249937 -0.57494718 2.1897988 1914703
0.88968343 -0.52510101 2.1539485 1585484
0.92472404 -0.52500218 2.1691332 1585740
0.97256309 -0.5249688 2.1898615 1651533
0.8896752 -0.47503918 2.1539805 1453899
0.92472547 -0.4749217 2.169168 1454155
0.9725942 -0.47499087 2.1899118 1454155
0.889718 -0.42497548 2.1540325 1651790
0.92472643 -0.4249568 2.1692028 1586254
0.97251934 -0.42500898 2.1899083 1520205
0.88970101 -0.37491068 2.1540601 1651790
0.92475039 -0.37498999 2.1692462 1520204
0.97271532 -0.37498024 2.1900275 1322569
0.88975275 -0.32484242 2.1541159 1256264
0.92480707 -0.32494241 2.169306 1256264
0.97258085 -0.3250418 2.1900094 1190471
0.88976967 -0.27487195 2.1541584 1256520
0.92478299 -0.27501091 2.1693294 1256521
0.97265637 -0.27500817 2.1900713 1190984
0.88978702 -0.22489963 2.1541998 1586253
0.92481869 -0.22507796 2.1693785 1520460
0.97265792 -0.22492862 2.1901085 1520460
0.88980448 -0.17492531 2.1542416 1388875
0.92490113 -0.17502378 2.1694493 1388875
0.97275859 -0.17502801 2.1901896 1388875
0.88982171 -0.12494909 2.1542833 1389132
0.92484051 -0.12508643 2.1694574 1323338
0.9725669 -0.12494783 2.1901338 1323338
0.88983899 -0.074970871 2.1543252 1191497
0.92473054 -0.075267896 2.1694427 1257289
0.97292823 -0.075036272 2.1903303 1191240
0.88985622 -0.024990723 2.1543674 993862
0.92492372 -0.025166992 2.1695628 993862
0.97260368 -0.025140459 2.1902239 993605
0.88987303 0.024991365 2.1544087 1059654
0.92494231 0.02516765 2.1696053 1059398
0.97262299 0.025141127 2.1902623 1059397
0.88989061 0.074975371 2.1544504 860737
0.92478412 0.075272456 2.1695702 794944
0.97298431 0.075040795 2.190459 794944
-1.7167945 0.113284 2.1792226 10197915
-1.6754849 0.1132876 2.1700678 10197915
-1.6254089 0.11327497 2.1701393 10197915
-1.5753452 0.11326327 2.1696019 10197915
-1.5252925 0.11325068 2.1696742 10197915
-1.4752482 0.11323898 2.1691375 10197915
-1.4252192 0.11322638 2.169208 10197915
-1.3820333 0.11322442 2.1634321 8816262
0.88990134 0.10621629 2.1544766 1057858
0.92573768 0.10675026 2.169889 1716042
0.97315758 0.10724713 2.1877899 2702932
1.0251696 0.11260656 2.1744592 10197915
1.0755007 0.11259433 2.1742232 10197915
1.1249224 0.11258235 2.1739917 10197915
1.1743335 0.11257035 2.1737602 10197915
1.2246323 0.11255815 2.1735246 10197915
1.2749202 0.11254597 2.1732888 10197915
1.3251971 0.11253374 2.1730533 10197915
1.3754632 0.11252157 2.1728177 10197915
1.4257183 0.11250938 2.1725829 10197915
1.4750655 0.11249741 2.1723514 10197915
1.524402 0.11248542 2.1721203 10197915
1.5746251 0.11247323 2.1718848 10197915
1.6248369 0.11246107 2.1716497 10197915
1.675038 0.11244889 2.1714149 10197915
1.7135786 0.11243954 2.1712341 10197915
0.99844885 -0.7185185 2.2009456 1520204
1.0246825 -0.71864694 2.2123129 1520204
1.0745411 -0.71878362 2.233917 1454411
1.1050544 -0.71870315 2.247139 1323082
0.99774796 -0.67091072 2.2006752 1585739
1.0247011 -0.67495751 2.212352 1453898
1.0744319 -0.67503393 2.2339001 1322312
1.1050735 -0.67495948 2.2471769 1322312
0.99733013 -0.62494493 2.200525 1717838
1.0247576 -0.62501633 2.21241 1717581
1.0745152 -0.62502557 2.2339706 1651532
1.1051298 -0.62488329 2.2472358 1585739
0.99736989 -0.57526523 2.2005765 1783374
1.0246649 -0.57499123 2.2124038 1783117
1.0745329 -0.57497144 2.2340121 1717324
1.1051338 -0.57499307 2.2472713 1717324
0.9973895 -0.52513355 2.2006192 1585740
1.0248299 -0.52500588 2.2125096 1520204
1.0745809 -0.52491534 2.2340679 1519690
1.1051372 -0.52510184 2.2473073 1388105
0.99740857 -0.47499967 2.2006619 1388619
1.024783 -0.4750596 2.2125227 1388362
1.0745945 -0.47494441 2.2341068 1322313
1.105141 -0.47520903 2.2473435 1454154
0.99742788 -0.42486408 2.2007043 1520204
1.0248125 -0.42502987 2.2125704 1388618
1.0746199 -0.42497256 2.2341523 1322569
1.1051447 -0.42531458 2.2473795 1322313
0.99744755 -0.37472647 2.2007473 1256264
1.0248339 -0.3749961 2.2126157 1190214
1.07461 -0.37495419 2.2341826 1124678
1.1052018 -0.37522793 2.247438 1190727
0.99748713 -0.32503566 2.2007987 1190471
1.0247879 -0.3249622 2.2126279 1124679
1.0746236 -0.3249785 2.2342222 1124421
1.1052229 -0.32495555 2.2474821 992579
0.99746537 -0.27490827 2.2008238 1190727
1.0249039 -0.2750079 2.2127137 1190727
1.0746368 -0.27500096 2.2342622 1190727
1.105245 -0.27468121 2.2475259 1125190
0.99750531 -0.2252136 2.2008748 1454924
1.0248096 -0.22509348 2.2127075 1454667
1.0745696 -0.22502178 2.2342677 1388618
1.1052665 -0.22440495 2.24757 1257545
0.99752468 -0.17506821 2.200918 1323339
1.024945 -0.17509542 2.2127991 1388874
1.0746988 -0.17499657 2.2343578 1323081
1.1053237 -0.17486697 2.2476285 1257545
0.99754387 -0.12492085 2.2009604 1323338
1.0250785 -0.12509218 2.2128913 1323338
1.074761 -0.12496853 2.2344193 1323081
1.1052736 -0.12552708 2.2476411 1257288
0.99756336 -0.074771568 2.2010036 1191240
1.024763 -0.074803866 2.2127895 1191239
1.0747806 -0.074982487 2.2344627 1125446
1.10533 -0.075426728 2.2476997 1125190
0.99758291 -0.024620334 2.2010462 993605
1.0250036 -0.024753246 2.2129266 993605
1.0748026 -0.024994593 2.2345068 993604
1.105352 -0.02514267 2.2477427 993604
0.99760205 0.02462096 2.2010882 1059397
1.0250237 0.024753872 2.2129707 1059397
1.0748237 0.024995258 2.23455 1059140
1.1053728 0.025143329 2.247787 1058883
