# .PCD v0.7 - Point Cloud Data file format
VERSION 0.7
FIELDS x y z rgb
SIZE 4 4 4 4
TYPE F F F U
COUNT 1 1 1 1
WIDTH 1155
HEIGHT 1
VIEWPOINT 0 0 0 1 0 0 0
POINTS 1155
DATA ascii
-0.56273979 -0.32502201 0.8977704 860996
-0.65467364 -0.27499381 0.85781682 2105376
-0.64322245 -0.27499965 0.86256105 2302755
-0.5627473 -0.27503985 0.8977921 927045
-0.65468138 -0.22499503 0.85783166 2105376
-0.64321589 -0.22498772 0.86253989 2302755
-0.56276757 -0.2249815 0.89780784 1059656
-0.65469134 -0.17502594 0.85784125 2105376
-0.64319867 -0.17498803 0.86250561 2302755
-0.56277072 -0.17496997 0.89783329 927814
-0.65487605 -0.12484585 0.85760069 2105376
-0.64318168 -0.125001 0.8625083 2302755
-0.56278396 -0.12500595 0.89785236 927813
-0.65495431 -0.075095847 0.8575623 2105376
-0.64318031 -0.074952923 0.86247712 2302755
-0.56281292 -0.074916579 0.89786303 993092
-0.65494871 -0.02507676 0.85755569 2105376
-0.64315832 -0.024949135 0.8624754 2236962
-0.56261718 -0.025289869 0.89799154 1125959
-0.65498722 0.025174314 0.85899174 2105376
-0.64314938 0.024948675 0.86246389 2236962
-0.5625425 0.024927719 0.89805663 994118
-0.65500903 0.07507816 0.85921133 2171169
-0.64315248 0.074938908 0.86243892 2236962
-0.56256634 0.074891388 0.89806992 862019
-0.65491253 0.10792293 0.85960495 2565927
-0.63428837 0.11100362 0.868339 5921370
-0.57116175 0.11268203 0.88311327 7173759
-0.52502286 0.11508929 0.8763845 10197915
-0.47498798 0.11507644 0.87622398 10197915
-0.42496461 0.11506346 0.87613267 10197915
-0.37491268 0.1150502 0.87604439 10197915
-0.32495156 0.11503738 0.87596065 10197915
-0.27504274 0.11502434 0.87584513 10197915
-0.22502427 0.11501134 0.87576246 10197915
-0.17501727 0.11499833 0.87562066 10197915
-0.12498097 0.11498539 0.87556684 10197915
-0.074996464 0.11497221 0.87543899 10197915
-0.025023598 0.11495921 0.87535 10197915
0.02501983 0.11494634 0.87525153 10197915
0.074970059 0.1149333 0.87514162 10197915
0.12494955 0.11492024 0.87508076 10197915
0.17499857 0.11490741 0.8749367 10197915
0.22499593 0.11489427 0.8748458 10197915
0.27502185 0.11488124 0.87478274 10197915
0.32503632 0.1148682 0.87465632 10197915
0.37500048 0.11485525 0.87455696 10197915
0.42499244 0.11484238 0.87442428 10197915
0.47501352 0.11482911 0.874403 10197915
0.52502328 0.1148163 0.8742348 10197915
0.57502151 0.11480316 0.87417996 10197915
0.62500912 0.11479025 0.87406242 10197915
0.67201406 0.11477441 0.87650877 10197915
0.70517415 0.11474289 0.89266682 10197915
-0.67210418 -0.40817383 0.93048114 2894892
-0.55389804 -0.40183762 0.90232295 1124937
-0.52080178 -0.40570685 0.91951531 1059914
-0.4799709 -0.41045249 0.94072306 1058887
-0.66857696 -0.37498683 0.92375559 2894892
-0.55426568 -0.37496856 0.90214646 1191241
-0.52546579 -0.37500253 0.91710472 1125449
-0.48135442 -0.37500638 0.94002247 1125193
-0.66839182 -0.32500294 0.92349291 2894892
-0.55428267 -0.32499346 0.90216279 926788
-0.52548355 -0.3249999 0.91712791 1059143
-0.4813621 -0.32500154 0.94004285 1125706
-0.66821808 -0.27501661 0.92325574 2894892
-0.55429232 -0.27501577 0.90218455 927045
-0.52548873 -0.27499911 0.91714525 1059399
-0.48137388 -0.27500138 0.94006532 1125962
-0.6686455 -0.22455341 0.92417425 2894892
-0.5543012 -0.2250111 0.90220702 1059912
-0.52550125 -0.22500534 0.91716623 1059657
-0.48137724 -0.22499841 0.94008797 1059657
-0.66881847 -0.17498291 0.92460471 2894892
-0.55431503 -0.17500378 0.90222502 928070
-0.52550846 -0.17500944 0.91719109 1059656
-0.48139557 -0.17499359 0.94010079 1059913
-0.66865623 -0.12495901 0.92438728 2894892
-0.55433607 -0.12506983 0.90224081 927813
-0.52552903 -0.12499363 0.91720378 928070
-0.48138282 -0.12499266 0.94013441 993863
-0.66849172 -0.074961372 0.92416614 2894892
-0.55434155 -0.075108513 0.9022646 993092
-0.52552384 -0.074984439 0.91723359 993348
-0.48156771 -0.075125434 0.94006592 993092
-0.6683237 -0.024990903 0.92393732 2894892
-0.55434966 -0.025044937 0.90228534 1125959
-0.52546322 -0.024934214 0.91729563 1125960
-0.48163107 -0.025121564 0.94006276 1191496
-0.66898882 0.02480603 0.92531466 2894892
-0.55436236 0.025045661 0.90230542 993861
-0.52527183 0.024997253 0.91741633 993861
-0.48142573 0.025026627 0.94019336 1059911
-0.66892391 0.07501664 0.92528522 2894892
-0.55438209 0.075088866 0.90232271 862019
-0.52526379 0.074991658 0.91744798 861763
-0.48145968 0.075021341 0.94020337 927812
-0.665371 0.11083149 0.9277643 6381921
-0.6249404 0.11504612 0.92564815 10132122
-0.56635886 0.11012349 0.90737545 3689054
-0.52466118 0.10822155 0.9168576 1782347
-0.4790611 0.10958428 0.93521726 3491932
-0.42499954 0.1149941 0.92519915 10197915
-0.37498307 0.11498109 0.92513669 10197915
-0.32492849 0.11496808 0.92502064 10197915
-0.27498281 0.11495513 0.92492634 10197915
-0.22499965 0.11494212 0.9248178 10197915
-0.17497993 0.11492914 0.92470139 10197915
-0.12501958 0.11491606 0.92464793 10197915
-0.075022675 0.11490315 0.92446327 10197915
-0.024989551 0.11489009 0.92441034 10197915
0.025033616 0.1148771 0.92430019 10197915
0.075044177 0.11486415 0.92415553 10197915
0.12499579 0.11485105 0.92411876 10197915
0.17498402 0.11483813 0.92396402 10197915
0.2250087 0.11482514 0.92386985 10197915
0.27502272 0.11481205 0.92381287 10197915
0.32507178 0.11479914 0.92364407 10197915
0.37506375 0.1147861 0.92357361 10197915
0.42499486 0.11477319 0.92341727 10197915
0.47496313 0.11476014 0.92334712 10197915
0.52496749 0.11474714 0.9232375 10197915
0.57500875 0.11473408 0.92317921 10197915
0.62503839 0.11472115 0.92301679 10197915
0.67496181 0.1147082 0.92290032 10197915
0.71856713 0.11469047 0.92734134 10197915
0.75055844 0.11465777 0.94456863 10197915
-0.70434725 -0.42212445 0.99253178 2894892
-0.6919235 -0.41671076 0.9686231 2894892
-0.45596534 -0.41323388 0.95319027 1059144
-0.4237411 -0.41698757 0.96992701 993095
-0.38256964 -0.42176574 0.99131268 1124680
-0.70409036 -0.37513632 0.99212641 2894892
-0.69097745 -0.37501815 0.96688056 2894892
-0.45608783 -0.3749885 0.95314664 1059657
-0.4252097 -0.37500045 0.9691875 1124937
-0.38308239 -0.37501031 0.99107093 1190986
-0.70391661 -0.32504007 0.99188876 2894892
-0.69079113 -0.32499576 0.96661842 2894892
-0.45609242 -0.32501251 0.95317 1191499
-0.42523101 -0.32499981 0.96920091 1191499
-0.38309014 -0.32500133 0.99109292 1191243
-0.7037183 -0.27497277 0.99160308 2894892
-0.69061238 -0.2749992 0.96637058 2894892
-0.45610952 -0.27503404 0.9531877 1191754
-0.42522657 -0.27499193 0.96923286 1191499
-0.383093 -0.27498993 0.99111694 1191499
-0.70390499 -0.22355138 0.99206102 2894892
-0.69098407 -0.22582756 0.96717978 2894892
-0.45611104 -0.22503284 0.95321357 1059657
-0.42524391 -0.22499235 0.96924829 1059657
-0.38310957 -0.22500087 0.9911347 1059401
-0.70445621 -0.17498934 0.99321538 2894892
-0.69132566 -0.17503424 0.96793514 2894892
-0.45612577 -0.17500861 0.95323128 1059657
-0.4252426 -0.17500035 0.96927404 1059913
-0.38310766 -0.17499349 0.99116212 1059401
-0.70428884 -0.12495933 0.99298865 2894892
-0.69113845 -0.12497741 0.96767062 2894892
-0.45612273 -0.12500308 0.95326006 1059399
-0.42525417 -0.12500191 0.96929377 993863
-0.38311994 -0.12500048 0.99118215 993607
-0.70411241 -0.074956141 0.99274492 2894892
-0.69093746 -0.074997358 0.96737868 2894892
-0.45631784 -0.074583858 0.95318484 993349
-0.42527401 -0.075021386 0.96931154 993093
-0.38315144 -0.074996829 0.99119186 993349
-0.70391715 -0.02498004 0.99246502 2894892
-0.69076318 -0.024993829 0.96713901 2894892
-0.45646834 -0.024896761 0.95313305 1191753
-0.42527601 -0.025018632 0.96933669 1191753
-0.38312346 -0.024991645 0.99123329 1191497
-0.70373142 0.024971265 0.992203 2894892
-0.69058013 0.024985028 0.96688408 2894892
-0.45647791 0.024897488 0.95315343 1125960
-0.42528632 0.025019359 0.96935624 1125960
-0.38313267 0.024992388 0.99125463 1125447
-0.70355493 0.074894644 0.99195951 2894892
-0.69040287 0.075035594 0.96663755 2894892
-0.45650175 0.0749107 0.95316821 994118
-0.42530555 0.075021163 0.96937346 993862
-0.38317204 0.074993618 0.99126071 927299
-0.70324761 0.10817889 0.99185312 4144959
-0.67720538 0.11287078 0.97303772 8224125
-0.63176149 0.11498465 0.97046214 9540244
-0.45643571 0.10762583 0.9531945 1125447
-0.42464098 0.10832074 0.96846527 1979983
-0.38017619 0.10975781 0.98518372 3819870
-0.32500339 0.11490024 0.97315252 10197915
-0.27503887 0.1148873 0.9729948 10197915
-0.22502737 0.11487424 0.97293264 10197915
-0.17502719 0.11486129 0.97280663 10197915
-0.12503825 0.1148483 0.9727115 10197915
-0.075003177 0.11483536 0.97254062 10197915
-0.024979897 0.11482226 0.97250766 10197915
0.024976118 0.11480924 0.97239774 10197915
0.075795159 0.11479341 0.9741683 10197915
0.1250333 0.11477856 0.97550827 10197915
0.17502692 0.11476558 0.97538519 10197915
0.22500923 0.1147525 0.97534359 10197915
0.27498081 0.11473954 0.97520435 10197915
0.32509172 0.11472653 0.97510356 10197915
0.37509146 0.11471353 0.9749831 10197915
0.42497748 0.11470063 0.97482753 10197915
0.47500408 0.11468761 0.97477007 10197915
0.52501982 0.11467464 0.97466123 10197915
0.57502389 0.11466169 0.97452176 10197915
0.62506711 0.11464861 0.9744342 10197915
0.67499733 0.11463565 0.97432834 10197915
0.72491813 0.11462269 0.97419983 10197915
0.76544541 0.11460134 0.98178762 10197915
-0.72633189 -0.45654577 1.0347921 2894892
-0.35143608 -0.45035619 1.0074705 1323598
-0.3182236 -0.4542416 1.0247214 1389390
-0.28384605 -0.45824084 1.0425782 1586255
-0.72053927 -0.42491877 1.0237017 2894892
-0.35804346 -0.42454556 1.0040593 1190729
-0.32529086 -0.42499968 1.0210633 1256779
-0.28491473 -0.42500049 1.0420407 1388620
-0.72029126 -0.37496942 1.0233186 2894892
-0.35814205 -0.37497592 1.0040237 1191499
-0.32530019 -0.37500709 1.0210878 1323085
-0.2849361 -0.37500665 1.0420537 1388621
-0.72010893 -0.32501158 1.0230641 2894892
-0.35814339 -0.32497793 1.004042 1125707
-0.3253127 -0.32500729 1.0211073 1191243
-0.28493196 -0.32501039 1.0420828 1191499
-0.71993095 -0.27500242 1.0228155 2894892
-0.35816094 -0.27499536 1.0040671 1191499
-0.32532176 -0.2750015 1.0211273 1257292
-0.2849457 -0.27500165 1.0421025 1257292
-0.71999204 -0.22541422 1.0230287 2894892
-0.35816672 -0.22499327 1.0040966 1125194
-0.32532716 -0.22500183 1.0211508 1389133
-0.28494737 -0.22499081 1.0421276 1389390
-0.72075635 -0.17500587 1.0245966 2894892
-0.35816705 -0.17502469 1.0041255 1125193
-0.32532927 -0.17499362 1.0211744 1191755
-0.28495124 -0.17499919 1.0421501 1257292
-0.72054636 -0.12505664 1.0242879 2894892
-0.35817951 -0.12501772 1.0041429 1059400
-0.32534367 -0.12498951 1.0211943 993864
-0.28495991 -0.1249943 1.0421727 1454925
-0.72093767 -0.07444749 1.0251377 2894892
-0.35819468 -0.074954867 1.0041496 993350
-0.32533568 -0.075013518 1.0212263 993606
-0.28499883 -0.075009182 1.0421805 1257803
-0.72135657 -0.025004247 1.0260398 2894892
-0.35818163 -0.024961311 1.0041834 1125961
-0.32536325 -0.025017995 1.0212376 1125961
-0.28494906 -0.025022028 1.0422341 1257546
-0.72118503 0.025034012 1.0258052 2894892
-0.35819089 0.024962079 1.0042107 1125447
-0.32537508 0.025012631 1.0212582 1191496
-0.28495505 0.025022762 1.042255 1257289
-0.72098279 0.07504411 1.0255123 2894892
-0.35821921 0.074959949 1.0042311 927300
-0.32535306 0.075012557 1.0212951 993092
-0.28501728 0.075014345 1.0422493 927043
-0.71642327 0.11092746 1.0271499 6579300
-0.67607296 0.11492297 1.0224757 9935000
-0.64365792 0.11493472 1.0080912 7830916
-0.35814539 0.10775921 1.0041256 1452872
-0.324729 0.10846116 1.0197695 2373713
-0.28098303 0.11003401 1.0346161 4213856
-0.22507013 0.11480419 1.0225734 10197915
-0.1750012 0.11479118 1.0224754 10197915
-0.12494359 0.11477818 1.0223594 10197915
-0.074957825 0.11476544 1.0220995 10197915
-0.024984024 0.11475225 1.0221281 10197915
0.024980268 0.11473921 1.0220124 10197915
0.073987968 0.11472403 1.0236995 10197915
0.12497476 0.11470804 1.0254813 10197915
0.17501548 0.11469509 1.0253559 10197915
0.2250457 0.1146821 1.0252287 10197915
0.27506393 0.11466907 1.0251445 10197915
0.32521182 0.11465607 1.0250396 10197915
0.3751379 0.11464319 1.0248581 10197915
0.42498007 0.11463022 1.0247759 10197915
0.47495389 0.11461717 1.0246913 10197915
0.52498579 0.11460418 1.0245757 10197915
0.5750072 0.1145913 1.024417 10197915
0.62494618 0.11457824 1.0243324 10197915
0.67501485 0.11456523 1.0242273 10197915
0.72507346 0.1145523 1.0240794 10197915
0.77504933 0.11453921 1.0240271 10197915
0.81081128 0.11451755 1.0327165 10197915
-0.75519645 -0.4690209 1.0903399 2894892
-0.74237728 -0.46338543 1.0656704 2894892
-0.25970918 -0.46103632 1.0551146 1652048
-0.22371861 -0.46521845 1.0738089 1652048
-0.1862274 -0.46959683 1.0932817 1651535
-0.75480109 -0.42503315 1.0896633 2894892
-0.74160939 -0.42495447 1.0642658 2894892
-0.26005402 -0.42501038 1.0549546 1388364
-0.22538331 -0.42499536 1.0729628 1783890
-0.18658119 -0.42500171 1.0931202 1849426
-0.75462687 -0.37504968 1.0894235 2894892
-0.7414028 -0.37496135 1.0639629 2894892
-0.26005509 -0.37501988 1.0549799 1322828
-0.22536956 -0.37499908 1.0729978 1652048
-0.18658623 -0.37498209 1.0931455 1717841
-0.75440389 -0.32509282 1.0890899 2894892
-0.74118412 -0.32491928 1.0636389 2894892
-0.26006046 -0.32500938 1.0550021 1257292
-0.22537936 -0.32499266 1.0730208 1323085
-0.1865852 -0.32498902 1.0931715 1520206
-0.75421637 -0.27493674 1.0888246 2894892
-0.74101144 -0.27490503 1.0634023 2894892
-0.26006401 -0.27501398 1.055028 1323085
-0.22538814 -0.27499205 1.0730423 1323085
-0.18659908 -0.27499306 1.0931901 1388877
-0.75468886 -0.22662534 1.0898271 2894892
-0.74161416 -0.22404283 1.0646597 2894892
-0.26006764 -0.22501616 1.0550517 1454926
-0.22538228 -0.2249957 1.0730702 1455183
-0.18659616 -0.22500993 1.0932195 1520719
-0.75517792 -0.17489651 1.0908676 2894892
-0.74187857 -0.17502804 1.0652626 2894892
-0.26008165 -0.17499903 1.0550727 1323341
-0.22540411 -0.17500485 1.0730847 1389133
-0.18661045 -0.17500976 1.0932375 1454670
-0.75496286 -0.12500094 1.0905491 2894892
-0.74170905 -0.12499636 1.0650322 2894892
-0.26006833 -0.124997 1.0551043 1454925
-0.22538826 -0.12501095 1.0731225 1586254
-0.18691672 -0.1251511 1.0931042 1586511
-0.75477988 -0.074981026 1.0902922 2894892
-0.74207574 -0.075919949 1.0658319 2894892
-0.26011389 -0.074923284 1.055106 1323596
-0.22542705 -0.075036474 1.0731248 1388876
-0.18704398 -0.074953519 1.0930653 1323340
-0.75456423 -0.024988662 1.0899732 2894892
-0.74261922 -0.024976499 1.066976 2894892
-0.260079 -0.024916714 1.0551511 1257803
-0.22540313 -0.025032077 1.0731623 1257804
-0.18701774 -0.024936792 1.0931039 1323340
-0.75436509 0.024979878 1.0896857 2894892
-0.7424233 0.024967711 1.0666944 2894892
-0.26008448 0.024917426 1.0551744 1257290
-0.22540714 0.025032828 1.0731901 1257546
-0.18702146 0.024937462 1.0931288 1323339
-0.75515038 0.076510057 1.0912966 2894892
-0.74221593 0.074958213 1.0663912 2894892
-0.26013088 0.074928425 1.0551776 926786
-0.22544509 0.075027607 1.0731946 992836
-0.18705456 0.074944168 1.0931376 1124677
-0.75504005 0.10848854 1.0920143 4473924
-0.72751874 0.11299776 1.0737065 8487297
-0.68763602 0.11486111 1.0684563 8948623
-0.25997716 0.10770179 1.0551395 1254980
-0.22469595 0.10839878 1.071735 2307664
-0.18195389 0.11021281 1.0850192 4608870
-0.12500712 0.11470649 1.0731885 10197915
-0.074980833 0.11469366 1.072958 10197915
-0.024967084 0.11468052 1.0729458 10197915
0.024963319 0.11466751 1.072824 10197915
0.074954435 0.11465474 1.0725945 10197915
0.12500946 0.11464154 1.0726435 10197915
0.17505278 0.11462862 1.072448 10197915
0.22501054 0.11461589 1.0722425 10197915
0.2749573 0.11460278 1.0722057 10197915
0.32511497 0.11458984 1.072037 10197915
0.37518594 0.11457673 1.0719997 10197915
0.42509958 0.11456377 1.0718416 10197915
0.47507468 0.11455086 1.0716728 10197915
0.52503884 0.11453784 1.0716234 10197915
0.57499129 0.11452493 1.0714298 10197915
0.62493324 0.1145119 1.0713562 10197915
0.67508411 0.11449891 1.0712482 10197915
0.72507763 0.114486 1.0710876 10197915
0.77491087 0.11447308 1.0709324 10197915
0.82327831 0.11445837 1.0723493 10197915
0.85705584 0.11442983 1.086264 10197915
-0.78061873 -0.50484574 1.1392158 2894892
-0.11323056 -0.5030567 1.1311836 2111827
-0.087787658 -0.50602597 1.1443986 2177620
-0.77343136 -0.47432616 1.1254369 2894892
-0.16151303 -0.47243172 1.1061181 1717071
-0.12523501 -0.47487324 1.1249628 1848656
-0.088620365 -0.47503671 1.1439826 2045778
-0.77297586 -0.42497411 1.1246539 2894892
-0.16174839 -0.42498219 1.1060214 1849426
-0.12537254 -0.42499685 1.1249168 1915218
-0.088626511 -0.42503658 1.1440059 1980754
-0.77274936 -0.37496972 1.1243147 2894892
-0.1617537 -0.37501156 1.1060448 1783633
-0.1253767 -0.37500003 1.1249418 1849170
-0.088634826 -0.37501401 1.1440275 1849170
-0.77256864 -0.32499158 1.1240616 2894892
-0.16175802 -0.32502148 1.1060685 1520206
-0.12536438 -0.32499212 1.1249733 1520463
-0.08862707 -0.32500976 1.1440585 1585999
-0.77235413 -0.27509192 1.1237442 2894892
-0.16175684 -0.27501279 1.1060951 1388878
-0.12537295 -0.27499026 1.1249948 1454670
-0.088642754 -0.27502143 1.1440755 1454414
-0.77212071 -0.22511531 1.1233903 2894892
-0.16176708 -0.22498462 1.1061161 1586512
-0.1253738 -0.22500354 1.1250205 1586512
-0.088628165 -0.22501221 1.1441097 1586512
-0.77196437 -0.17506011 1.1231861 2894892
-0.16176859 -0.17497103 1.1061429 1454926
-0.12538034 -0.17499721 1.1250446 1454670
-0.08864592 -0.17501943 1.1441271 1389134
-0.77177227 -0.12498078 1.1229117 2894892
-0.16211778 -0.12485982 1.1059864 1586511
-0.12539503 -0.12496465 1.1250628 1586511
-0.088621758 -0.12502493 1.1441662 1586511
-0.77152121 -0.074979722 1.1225237 2894892
-0.16215666 -0.075044625 1.1059918 1323084
-0.12536274 -0.074962527 1.125107 1323340
-0.088660471 -0.075084932 1.1441716 1388619
-0.77133 -0.025005281 1.1222516 2894892
-0.16223274 -0.025021976 1.10598 1389388
-0.12540182 -0.024991293 1.1251132 1454925
-0.088640198 -0.025086166 1.1442078 1388876
-0.77113152 0.025047993 1.1219664 2894892
-0.16223687 0.025022732 1.1060042 1191753
-0.12540406 0.024992011 1.1251374 1323083
-0.088641904 0.025086891 1.1442347 1191497
-0.77235615 0.075028852 1.1244183 2894892
-0.16216797 0.075049832 1.1060659 1058885
-0.12537032 0.074967518 1.1251805 1058628
-0.08866623 0.075090058 1.1442478 1058885
-0.76820135 0.1112053 1.1294931 6974058
-0.72997129 0.1147961 1.1224422 9540501
-0.69894588 0.11481375 1.1041238 927555
-0.16208282 0.10772993 1.1059147 1518151
-0.12476269 0.10843781 1.1232355 2504785
-0.082141995 0.11051787 1.1349946 5068905
-0.025003776 0.11460771 1.1245599 10197915
0.025000004 0.11459479 1.1244326 10197915
0.075067393 0.11458198 1.124207 10197915
0.12504731 0.11456874 1.1242468 10197915
0.17493811 0.11455595 1.1239939 10197915
0.22497256 0.11454299 1.1238824 10197915
0.27499568 0.11452988 1.1238245 10197915
0.32477409 0.11451706 1.123667 10197915
0.37477627 0.11450408 1.1235576 10197915
0.42499757 0.11449104 1.1234293 10197915
0.47497484 0.11447824 1.1231753 10197915
0.52494138 0.11446514 1.1231741 10197915
0.57497442 0.11445221 1.1229918 10197915
0.62499589 0.11443918 1.1229196 10197915
0.67500687 0.11442638 1.1226521 10197915
0.72500372 0.11441305 1.1227754 10197915
0.77506912 0.11440028 1.1224962 10197915
0.82504511 0.1143873 1.1223968 10197915
0.87122881 0.1143705 1.1256896 10197915
0.90457875 0.11433781 1.1426578 10197915
-0.80564141 -0.51574135 1.1873699 2894892
-0.79317665 -0.51020944 1.1633828 2894892
-0.062960491 -0.50890923 1.1572924 2309204
-0.023530275 -0.51347518 1.177773 2506069
0.0096156904 -0.5173232 1.1949909 2703189
-0.80509096 -0.47505012 1.1863886 2894892
-0.79253787 -0.47499147 1.1622208 2894892
-0.063738883 -0.47499454 1.1569037 2111826
-0.025341326 -0.47498965 1.1768588 2243155
0.0093905572 -0.47499862 1.1948967 2440276
-0.8048858 -0.42492688 1.1860896 2894892
-0.79234469 -0.42504451 1.1619439 2894892
-0.063749067 -0.42499188 1.1569263 2046291
-0.025358763 -0.42499655 1.1768755 2112083
0.0094156358 -0.42500916 1.1949357 2308948
-0.80621332 -0.37513104 1.1887407 2894892
-0.79357976 -0.37478867 1.1644185 2894892
-0.063747056 -0.37498757 1.1569628 1914962
-0.025342891 -0.37500173 1.1769062 2046034
0.0094096428 -0.37499249 1.1949584 2111826
-0.80606055 -0.32482532 1.1885432 2894892
-0.79345655 -0.32500172 1.1642765 2894892
-0.063739926 -0.32498127 1.1569904 1651791
-0.025362436 -0.32500449 1.1769198 1651278
0.0094036274 -0.3249988 1.1949821 1585485
-0.80584925 -0.27502036 1.1882309 2894892
-0.79323542 -0.27505535 1.1639467 2894892
-0.063759714 -0.27498886 1.156999 1520206
-0.025364501 -0.27501437 1.1769416 1585998
0.00938519 -0.27500263 1.1949985 1585998
-0.80565727 -0.22491343 1.1879581 2894892
-0.79306221 -0.22503759 1.1637087 2894892
-0.063752674 -0.22499426 1.1570257 1586512
-0.025349032 -0.22501212 1.1769785 1717841
0.0094351284 -0.22500506 1.1950508 1652304
-0.80546516 -0.17467223 1.1876841 2894892
-0.79278117 -0.17495279 1.1632644 2894892
-0.063773803 -0.17501414 1.1570477 1454926
-0.025366208 -0.17497984 1.176998 1454926
0.0094042588 -0.17500514 1.1950595 1389134
-0.80684036 -0.12502129 1.1904267 2894892
-0.79261929 -0.12498821 1.1630483 2894892
-0.063734606 -0.12503169 1.1571003 1652303
-0.025357705 -0.12499246 1.17703 1652047
0.0093733482 -0.12500253 1.1950705 1586511
-0.80663562 -0.075067215 1.1901288 2894892
-0.79239875 -0.074953929 1.1627191 2894892
-0.063787989 -0.074948251 1.157095 1256778
-0.025339624 -0.075021684 1.1770693 1256778
0.0094668055 -0.074996866 1.1951466 1322570
-0.80640608 -0.025017301 1.1897829 2894892
-0.79220098 -0.024947578 1.1624347 2894892
-0.063731112 -0.024928335 1.157143 1059399
-0.025365366 -0.025011558 1.1770822 1059656
0.009373744 -0.024992639 1.1951245 1125449
-0.80619299 0.025008479 1.1894689 2894892
-0.79199243 0.024938824 1.1621281 2894892
-0.063732535 0.024929082 1.1571687 1059399
-0.025366113 0.025012288 1.1771064 1059399
0.0093739675 0.024993395 1.1951509 1124935
-0.80599648 0.075005524 1.1891854 2894892
-0.79223084 0.073659375 1.1626806 2894892
-0.063792124 0.074953437 1.1571723 1059142
-0.025341369 0.075026765 1.1771456 1124935
0.0094674313 0.075001985 1.1952252 1125191
-0.80548048 0.10900044 1.1900691 5066061
-0.77841949 0.1131669 1.1757765 8553348
-0.74329054 0.11473955 1.1649816 7765123
-0.06353464 0.10754593 1.1572018 1452358
-0.024723722 0.10835389 1.1754694 2570834
0.017037133 0.11065952 1.1858561 5463918
0.074942179 0.11450858 1.1762533 10197915
0.12501898 0.11449587 1.1759285 10197915
0.17508462 0.11448266 1.1759491 10197915
0.22504264 0.1144699 1.175699 10197915
0.27498788 0.11445679 1.1756827 10197915
0.32482475 0.11444391 1.1755103 10197915
0.37484673 0.11443099 1.1753415 10197915
0.42495245 0.11441799 1.1752055 10197915
0.47495091 0.11440495 1.1751505 10197915
0.52493763 0.11439209 1.1749394 10197915
0.57491261 0.11437914 1.174809 10197915
0.62497377 0.114366 1.1747891 10197915
0.67482865 0.11435322 1.1745403 10197915
0.72486854 0.11434025 1.1744097 10197915
0.77489477 0.11432727 1.1742737 10197915
0.8248142 0.11431425 1.174219 10197915
0.87491566 0.11430137 1.1740104 10197915
0.91866064 0.11428352 1.1784986 10197915
-0.83508122 -0.5534333 1.2439774 2894892
0.091589078 -0.55186713 1.237556 3162196
0.10851655 -0.5537954 1.246348 3227989
-0.8259052 -0.5232479 1.2263694 2894892
0.035005599 -0.52029318 1.2081782 2834262
0.075354204 -0.52427506 1.2291358 2965590
0.10789874 -0.52499378 1.2460424 3162711
-0.82494432 -0.47495222 1.2246118 2894892
0.03453115 -0.4750163 1.2079564 2637141
0.074825548 -0.47499496 1.2288897 2768726
0.10744926 -0.47527796 1.2458349 2834261
-0.82477915 -0.42499241 1.22439 2894892
0.034531262 -0.42501351 1.2079823 2374740
0.074845575 -0.4250021 1.2289244 2505812
0.10735391 -0.4249914 1.2458121 2637140
-0.8245104 -0.37505898 1.2239677 2894892
0.034534037 -0.37502503 1.2080102 2177362
0.07484702 -0.37499744 1.228953 2308947
0.10736264 -0.37500995 1.2458426 2440276
-0.82430279 -0.32502449 1.2236642 2894892
0.03452706 -0.3250182 1.2080338 1651021
0.074835256 -0.3250002 1.2289733 1848655
0.10734675 -0.32498872 1.2458612 1913934
-0.82410616 -0.27495354 1.2233806 2894892
0.034535043 -0.27499285 1.208063 1651791
0.074861161 -0.27500147 1.2290109 1782863
0.10737306 -0.27500185 1.2459005 1782605
-0.82385826 -0.22503579 1.2229995 2894892
0.03453229 -0.22499745 1.2080874 1783377
0.074839205 -0.22498947 1.2290257 1849168
0.10736106 -0.22501358 1.245921 1914961
-0.82371902 -0.1750779 1.2228277 2894892
0.03454883 -0.1750163 1.2081227 1520462
0.074860334 -0.17499672 1.2290616 1652047
0.10737363 -0.17498556 1.2459527 1718096
-0.82516897 -0.1249165 1.225713 2894892
0.034521613 -0.12500031 1.2081345 1652047
0.074860871 -0.12499125 1.2290919 1652047
0.10734424 -0.1250667 1.2459646 1652047
-0.82494098 -0.074988723 1.2253722 2894892
0.034503721 -0.075015441 1.2081519 1257034
0.074802801 -0.074994102 1.2290848 1257034
0.10741019 -0.074995816 1.2460243 1257034
-0.82470357 -0.025015485 1.2250104 2894892
0.034572843 -0.025027348 1.2082149 1125449
0.074893542 -0.025006637 1.2291621 1191241
0.10734891 -0.024927363 1.2460198 1125961
-0.82448542 0.025006678 1.2246864 2894892
0.034573607 0.025028089 1.2082407 1125191
0.074895352 0.025007384 1.2291858 1125192
0.10735121 0.024928113 1.246047 1125191
-0.82430768 0.075071879 1.2244395 2894892
0.03450916 0.074988313 1.2082335 1191240
0.074807726 0.074999213 1.2291692 1191497
0.10741733 0.075000934 1.2461076 1257289
-0.81872714 0.11094715 1.2259347 6776679
-0.78609139 0.11467159 1.2211419 9080208
0.034781724 0.10751082 1.2082018 1716299
0.075503372 0.10839374 1.2270948 2768469
0.11744273 0.11119837 1.2352968 6187381
0.1749199 0.11441011 1.2273946 10197915
0.22503135 0.11439707 1.2273003 10197915
0.27503034 0.11438429 1.2270285 10197915
0.32481334 0.11437131 1.2269779 10197915
0.37489259 0.11435825 1.2268836 10197915
0.42516014 0.1143455 1.2265704 10197915
0.47511476 0.11433235 1.2265602 10197915
0.52505571 0.11431935 1.2264665 10197915
0.5750885 0.11430658 1.226195 10197915
0.62500751 0.1142934 1.2262324 10197915
0.67491454 0.11428069 1.2259613 10197915
0.72491491 0.11426758 1.2259113 10197915
0.77510202 0.11425485 1.2255982 10197915
0.82507926 0.1142417 1.2255875 10197915
0.87494063 0.11422871 1.2254944 10197915
0.92499596 0.1142159 1.2252667 10197915
0.96523225 0.1141949 1.2326469 10197915
-0.8582893 -0.5632419 1.2886401 2894892
-0.84523463 -0.55777848 1.2635171 2894892
0.1347 -0.55687875 1.2599475 3424853
0.17722727 -0.56179947 1.2820364 3622487
0.20645 -0.56524819 1.2972174 3819609
-0.85749781 -0.52501351 1.2871897 2894892
-0.84457016 -0.52503741 1.262301 2894892
0.13301979 -0.52500737 1.259091 3228246
0.1751352 -0.52498394 1.2809691 3491417
0.20637034 -0.52505088 1.2971944 3622745
-0.857283 -0.47516057 1.2868717 2894892
-0.84432167 -0.47488463 1.2619184 2894892
0.13254973 -0.47488376 1.2588749 3031383
0.17511944 -0.474989 1.2809887 3228503
0.20636651 -0.47502854 1.2972217 3294296
-0.85705674 -0.42493415 1.2865324 2894892
-0.84410024 -0.42510673 1.2615874 2894892
0.13247664 -0.42499849 1.258862 2702932
0.17515224 -0.42499173 1.2810307 2768468
0.20618753 -0.42565674 1.2971518 2834260
-0.85681975 -0.37486464 1.2861719 2894892
-0.84390372 -0.37517956 1.2613044 2894892
0.13248359 -0.37498823 1.258891 2505812
0.17512804 -0.3750045 1.2810448 2571604
0.2057976 -0.37505013 1.2969763 2637140
-0.85663491 -0.3249591 1.2859113 2894892
-0.84365535 -0.32510415 1.2609227 2894892
0.1324553 -0.32499254 1.2589043 1979727
0.17513967 -0.32500324 1.2810767 1979727
0.20579678 -0.32502669 1.2970022 2045775
-0.85637867 -0.27494329 1.2855142 2894892
-0.84345806 -0.27505624 1.2606386 2894892
0.13248307 -0.27497885 1.2589459 1651020
0.17516957 -0.27498716 1.2811186 1782862
0.2058122 -0.27506056 1.2970371 1782862
-0.85615271 -0.22482271 1.2851754 2894892
-0.84323573 -0.22503321 1.2603061 2894892
0.13248688 -0.22499447 1.2589718 1849425
0.17511739 -0.22499359 1.2811191 1783376
0.20578615 -0.22497375 1.2970487 1849425
-0.8559165 -0.17485887 1.2848159 2894892
-0.84296304 -0.17503965 1.259877 2894892
0.13248762 -0.17500883 1.2589991 1718096
0.17518194 -0.17499717 1.2811775 1717840
0.20584121 -0.17500225 1.2971048 1717840
-0.85579354 -0.12531345 1.2846742 2894892
-0.84288895 -0.12457303 1.2598313 2894892
0.13247482 -0.12495533 1.2590193 1586511
0.17515692 -0.12499922 1.2811913 1586511
0.20579529 -0.12503169 1.2971065 1586510
-0.857355 -0.075049758 1.2877766 2894892
-0.84438646 -0.074942805 1.2628083 2894892
0.13245113 -0.074998282 1.2590321 1257034
0.17510845 -0.074998789 1.2811913 1257034
0.20585293 -0.074993834 1.2971628 1257034
-0.85715574 -0.025070496 1.2874888 2894892
-0.84414434 -0.024975952 1.2624385 2894892
0.13253458 -0.025038199 1.2591032 1191241
0.17520754 -0.024996946 1.2812707 1125449
0.20580141 -0.025021387 1.2971629 1125705
-0.85692883 0.025061652 1.2871482 2894892
-0.84392154 0.024967158 1.2621052 2894892
0.1325375 0.02503892 1.2591311 1125192
0.17521201 0.02499767 1.2812976 1125448
0.20580603 0.025022121 1.2971919 1125192
-0.85667557 0.074988127 1.2867565 2894892
-0.84371835 0.074881338 1.2618101 2894892
0.13246037 0.075003453 1.2591156 1257289
0.17512055 0.075003952 1.2812762 1191753
0.20586649 0.074998945 1.2972504 1191754
-0.85615075 0.10949446 1.2889619 5592405
-0.8306092 0.1128669 1.2703832 8224383
-0.79605961 0.11462888 1.2532561 6055539
0.13283749 0.10735571 1.2592039 1650763
0.17583947 0.10829242 1.2794367 2768469
0.21767461 0.11148706 1.2851753 6713467
0.27493414 0.11431324 1.2774495 10197915
0.32490778 0.11430039 1.2772421 10197915
0.37487331 0.11428735 1.2771605 10197915
0.42495805 0.11427435 1.2770463 10197915
0.47489813 0.11426157 1.2767776 10197915
0.52496111 0.11424839 1.2767876 10197915
0.57514322 0.1142355 1.2765812 10197915
0.62505114 0.11422269 1.2763736 10197915
0.67494625 0.11420967 1.2762926 10197915
0.72509605 0.11419668 1.2761476 10197915
0.77496856 0.11418385 1.2759397 10197915
0.82483172 0.11417086 1.2758591 10197915
0.87494636 0.11415781 1.275775 10197915
0.92504859 0.11414494 1.2755688 10197915
0.9750095 0.11413211 1.275331 10197915
1.0108348 0.11410955 1.2846409 10197915
-0.8874284 -0.6010893 1.3446683 2894892
0.29734617 -0.60065758 1.3444149 4214620
0.30406117 -0.60155779 1.3479029 4280668
-0.87801033 -0.57178038 1.3265905 2894892
0.23198678 -0.56816095 1.3104789 3951193
0.27591094 -0.57318038 1.3332959 4017499
0.30375108 -0.57501596 1.3477556 4148828
-0.87696421 -0.52508259 1.3246678 2894892
0.231226 -0.52498406 1.3101035 3688794
0.27499241 -0.52501059 1.3328425 3754330
0.30375311 -0.52496111 1.3477831 3688794
-0.87670398 -0.47501868 1.3242617 2894892
0.23122339 -0.47497559 1.310132 3360088
0.27498701 -0.47502285 1.3328669 3360088
0.30375499 -0.47490424 1.3478107 3294039
-0.87648052 -0.42507321 1.3239275 2894892
0.23100331 -0.42480272 1.3100485 2834260
0.27499571 -0.42501733 1.3328966 2834261
0.30376881 -0.42493871 1.3478442 2834261
-0.87623465 -0.37506273 1.3235497 2894892
0.23065068 -0.37498242 1.3098885 2637140
0.27501044 -0.3750093 1.3329308 2571604
0.30378243 -0.37497041 1.3478767 2571604
-0.87601078 -0.3249869 1.323216 2894892
0.2306214 -0.32496583 1.3098965 2045519
0.2750096 -0.32501376 1.3329575 2046032
0.30378222 -0.32500017 1.3479038 2111569
-0.87575829 -0.27493775 1.3228256 2894892
0.23064928 -0.2749964 1.3099377 1783119
0.27499557 -0.27498767 1.3329747 1782863
0.30377004 -0.27512151 1.3479233 1783119
-0.87682819 -0.22405092 1.3249815 2894892
0.2306532 -0.22500783 1.3099689 1849425
0.27503973 -0.22500135 1.3330261 1849425
0.30379558 -0.22505327 1.3479624 1849169
-0.87733477 -0.17500873 1.326052 2894892
0.23066041 -0.17498443 1.3099986 1717840
0.27500719 -0.17504038 1.3330355 1717840
0.3038024 -0.174797 1.347993 1717840
-0.87711638 -0.12506323 1.3257272 2894892
0.23065002 -0.12502414 1.3100162 1586510
0.2750268 -0.12502165 1.3330696 1586254
0.30382806 -0.12490888 1.3480318 1520718
-0.87680942 -0.075066283 1.3252314 2894892
0.23061244 -0.074997135 1.3100227 1257290
0.27507788 -0.074972913 1.3331227 1257034
0.3037968 -0.075210854 1.3480422 1257034
-0.8766408 -0.02501696 1.3250023 2894892
0.23072013 -0.024966944 1.3101099 1125705
0.27503055 -0.024978751 1.3331256 1125705
0.30382237 -0.025132131 1.3480811 1125705
-0.87640887 0.025008135 1.3246521 2894892
0.23072557 0.024967685 1.310138 1125191
0.27503648 0.0249795 1.3331541 1125191
0.30382907 0.025132887 1.3481112 1059656
-0.87615299 0.075082526 1.3242551 2894892
0.23062809 0.075002298 1.3101112 1191753
0.27509573 0.074977987 1.3332118 1125191
0.30381447 0.075123176 1.3481303 1125960
-0.87046546 0.1111312 1.3284582 6974058
-0.84155947 0.11454965 1.317903 7896709
0.23110035 0.10757771 1.3100463 1913677
0.27557549 0.1084436 1.3303379 2965078
0.31873831 0.11210685 1.3322242 7567746
0.37491971 0.11421909 1.3255249 10197915
0.4251146 0.11420631 1.3252385 10197915
0.47516465 0.1141932 1.3251895 10197915
0.52506447 0.11418018 1.3251086 10197915
0.5749526 0.11416738 1.3248901 10197915
0.62496835 0.11415458 1.3246385 10197915
0.67510718 0.11414142 1.3246235 10197915
0.72510052 0.11412854 1.3244393 10197915
0.77508152 0.11411557 1.3243237 10197915
0.82504934 0.11410277 1.3240716 10197915
0.87500799 0.11408971 1.3240236 10197915
0.92495376 0.11407682 1.3238389 10197915
0.97502625 0.11406398 1.3236222 10197915
1.0235775 0.11404952 1.3248229 10197915
1.0574008 0.11402117 1.3385979 10197915
-0.90759718 -0.61196446 1.3946587 2039583
-0.89416122 -0.60359108 1.3576258 2894892
0.33256763 -0.60485482 1.3627092 4214876
0.37696388 -0.61000347 1.3857694 4017756
0.40222305 -0.61300653 1.3988891 3820379
-0.90785539 -0.57495725 1.3948709 2039583
-0.89565504 -0.57492292 1.3605566 2829099
0.3286618 -0.57499141 1.3606963 4017243
0.37457153 -0.57500821 1.3845454 3688537
0.40221065 -0.5750559 1.3989029 3491160
-0.90782988 -0.52493733 1.3948623 2039583
-0.89538747 -0.52499509 1.3601377 2829099
0.32865477 -0.52500284 1.3607188 3623002
0.3745617 -0.52502394 1.3845664 3491417
0.40204516 -0.52635324 1.3988421 3425625
-0.90781617 -0.47492 1.3948311 2039583
-0.89518285 -0.47490695 1.3598397 2829099
0.32864523 -0.47501194 1.3607397 3228503
0.37458333 -0.47499076 1.3846031 3162968
0.40154302 -0.47493643 1.3986082 3031639
-0.90778077 -0.42502096 1.3947824 2039583
-0.89491528 -0.42484495 1.3594204 2894892
0.32868835 -0.42500219 1.3607886 2768724
0.37456608 -0.42500216 1.3846215 2702932
0.40154144 -0.42492342 1.3986336 2702932
-0.90776628 -0.37504682 1.3947287 2039583
-0.89471191 -0.37499601 1.3591241 2894892
0.32867479 -0.37499008 1.3608075 2506068
0.37461442 -0.3750262 1.3846736 2440275
0.40156093 -0.37490538 1.3986701 2440019
-0.9080227 -0.32521471 1.3944011 2039583
-0.89444524 -0.32517338 1.3587062 2894892
0.32867831 -0.3249757 1.3608366 2045775
0.37459221 -0.32501772 1.3846872 1914191
0.40156969 -0.32507986 1.3987008 1914191
-0.90804523 -0.27499643 1.3942697 2039583
-0.89420867 -0.27500245 1.3583473 2894892
0.32867536 -0.27495939 1.36086 1782863
0.37461978 -0.27500683 1.3847276 1717070
0.40157837 -0.2752519 1.3987321 1717326
-0.90801477 -0.22514771 1.3942881 2039583
-0.89509642 -0.2275497 1.3601465 2894892
0.32871759 -0.2249576 1.3609091 1783632
0.37460554 -0.22500883 1.3847461 1718096
0.40159789 -0.2252264 1.3987681 1652304
-0.90797615 -0.17517762 1.3942025 2039583
-0.89584488 -0.17516613 1.3616883 2894892
0.32871366 -0.17497103 1.3609337 1652304
0.37461531 -0.17504011 1.3847784 1652303
0.40158594 -0.17481899 1.3987885 1586511
-0.90797925 -0.12488301 1.3941717 2039583
-0.89565498 -0.12492742 1.3614186 2894892
0.32869196 -0.12496498 1.3609492 1389133
0.37465343 -0.12503783 1.3848237 1389389
0.40160525 -0.1245959 1.3988247 1389389
-0.90793455 -0.074753858 1.3941157 2039583
-0.89537013 -0.074711196 1.3609667 2894892
0.32876128 -0.074939236 1.3610101 1257034
0.37468949 -0.075018167 1.3848675 1257034
0.40161404 -0.07475917 1.3988556 1191498
-0.90789926 -0.024917582 1.3940598 2039583
-0.89515775 -0.02480399 1.3606534 2894892
0.32868889 -0.024964504 1.3609995 1125705
0.37458986 -0.02501305 1.3848429 1060169
0.40162286 -0.024920205 1.3988866 1125705
-0.90787137 0.02491655 1.3940176 2039583
-0.89489847 0.025078533 1.3602494 2894892
0.32869586 0.024965223 1.3610294 1059655
0.37459719 0.025013817 1.384874 1125448
0.40163177 0.02492094 1.3989173 1125448
-0.90785104 0.074746713 1.3939896 2039583
-0.89468646 0.074930176 1.3599368 2894892
0.32877919 0.074927285 1.3610976 1191753
0.37471339 0.075023323 1.3849599 1257546
0.40164056 0.074764289 1.398948 1257545
-0.90761971 0.10754784 1.3935741 2697513
-0.88590902 0.11260106 1.3694696 7698297
0.32922301 0.1075024 1.3609462 1979470
0.37535828 0.10848568 1.3817416 3228761
0.42087859 0.11284858 1.3811524 8619916
0.47488105 0.11411968 1.3773522 10197915
0.52503335 0.11410673 1.3771929 10197915
0.57489055 0.11409404 1.3768841 10197915
0.62487787 0.11408093 1.3768426 10197915
0.67513824 0.1140679 1.3767271 10197915
0.72510481 0.11405504 1.3765297 10197915
0.7749157 0.11404228 1.3762989 10197915
0.82485944 0.11402918 1.3762572 10197915
0.87493241 0.11401623 1.3761036 10197915
0.92499459 0.11400352 1.3757913 10197915
0.97490293 0.11399043 1.3757503 10197915
1.0250838 0.11397743 1.375635 10197915
1.0718249 0.11396104 1.378533 10197915
1.1051567 0.11392772 1.3959208 10197915
-0.90115929 -0.61334538 1.4006441 2039583
-0.89499116 -0.61399835 1.4038469 1778475
0.42815807 -0.61594534 1.4123582 3754587
0.47540206 -0.62145782 1.4368979 3294294
0.50034821 -0.62408376 1.4498564 3228502
-0.90118265 -0.57506257 1.4006802 2039583
-0.89508098 -0.57493615 1.4038498 1778218
0.42696303 -0.5749867 1.4117619 3359831
0.47425473 -0.57499278 1.4363284 3162709
0.50035912 -0.57484227 1.4498879 3096917
-0.90121335 -0.52517575 1.4007277 2039583
-0.89510781 -0.52498943 1.4038997 1712168
0.4267644 -0.52484441 1.4116881 3294296
0.47428054 -0.52498496 1.436371 3031381
0.50037014 -0.52499819 1.4499201 2965589
-0.9012441 -0.4752858 1.4007756 2039583
-0.89514768 -0.47493395 1.4039428 1712168
0.42627501 -0.47503051 1.4114553 2965847
0.47423935 -0.47499305 1.436372 2768467
0.50038123 -0.47515166 1.4499518 2702419
-0.90127462 -0.42539233 1.4008235 2039583
-0.89517438 -0.42492729 1.4039927 1777704
0.42629221 -0.42501694 1.4114872 2505811
0.47432292 -0.42499867 1.4364393 2440019
0.50039226 -0.42530322 1.4499837 2308689
-0.90129864 -0.37530002 1.4008749 2039583
-0.8951993 -0.3749705 1.4040433 1777961
0.42630154 -0.37498355 1.4115227 2308947
0.47429872 -0.37501922 1.436456 2243154
-0.90171391 -0.32421494 1.4007239 2039583
-0.89523691 -0.32501033 1.4040872 1777960
0.4262985 -0.32498339 1.4115512 1848398
0.47429994 -0.32500347 1.436484 1782862
-0.90180439 -0.27492231 1.4007397 2039583
-0.89526927 -0.27509958 1.4041345 1777703
0.42632067 -0.27498156 1.4115839 1585741
0.47433025 -0.27498496 1.4365242 1585997
-0.90184003 -0.22473453 1.4007852 2039583
-0.89529032 -0.22513235 1.4041867 1777959
0.42631969 -0.22499481 1.4116073 1388106
0.47430062 -0.22501595 1.4365335 1454156
-0.9018631 -0.17468524 1.4008371 2039583
-0.89532089 -0.17510886 1.4042343 1777703
0.42636314 -0.17500536 1.4116603 1322827
0.47438163 -0.1750109 1.4366047 1322570
-0.90189439 -0.12477938 1.4008846 2039583
-0.89535159 -0.12508205 1.404283 1777702
0.42635137 -0.12499667 1.4116825 1389133
0.47435427 -0.12498555 1.4366177 1323340
-0.90192473 -0.074870102 1.4009322 2039583
-0.89533806 -0.074862272 1.4043536 1843495
0.42635846 -0.075056084 1.4117082 1191498
0.47426906 -0.074994102 1.4365958 1191241
-0.90195537 -0.024957465 1.40098 2039583
-0.89497495 -0.025022039 1.4046053 1778217
0.42636254 -0.025061687 1.4117352 1125705
0.4744496 -0.024998927 1.4367146 1125961
-0.9019857 0.024958588 1.4010276 2039583
-0.8950054 0.025023164 1.4046528 1778217
0.42637274 0.025062416 1.4117717 1125448
0.47445971 0.024999678 1.4367508 1125704
-0.90201735 0.074878 1.4010752 2039583
-0.8950361 0.075071797 1.4047015 1712167
0.42638686 0.075061217 1.4118061 1257545
0.4743003 0.074999198 1.4366946 1191753
-0.90203655 0.10738543 1.4011061 2171169
-0.89493424 0.1076477 1.4045408 1975083
0.4270477 0.10737479 1.4118693 1913933
0.47516963 0.10832618 1.4340529 3162968
0.52488804 0.11403761 1.4262102 10197915
0.57504505 0.11402468 1.4260485 10197915
0.62519377 0.11401169 1.4258865 10197915
0.67532778 0.11399875 1.4257244 10197915
0.72525859 0.11398567 1.4256772 10197915
0.77477783 0.1139732 1.4252867 10197915
0.82468569 0.11396016 1.4252421 10197915
0.87477469 0.11394722 1.4250799 10197915
0.92485547 0.11393426 1.4249183 10197915
0.97492152 0.11392134 1.4247564 10197915
1.0251732 0.11390816 1.4247074 10197915
1.0754162 0.11389536 1.4244312 10197915
1.1179748 0.11387955 1.4277273 10197915
0.53542393 -0.65343851 1.4680619 3162710
0.57583559 -0.65808594 1.4890512 3031381
0.52548301 -0.62499595 1.4629126 3097173
0.57318395 -0.62496316 1.4876909 2899796
0.52546448 -0.57499945 1.46293 2965332
0.57319659 -0.57499129 1.4877237 2702675
0.52548653 -0.52500057 1.4629681 2834260
0.57323074 -0.52499646 1.4877689 2702676
0.52549016 -0.47498158 1.4629949 2571091
0.5732255 -0.4750196 1.4877938 2440019
0.52549624 -0.4249776 1.4630249 2177104
0.57324111 -0.42502061 1.4878263 2111568
0.52476799 -0.37498704 1.4626724 1914190
0.5732584 -0.37501928 1.4878614 1848655
0.52477229 -0.32500169 1.4627013 1782862
0.5732615 -0.32501549 1.4878886 1783119
0.52480114 -0.27503246 1.4627415 1585741
0.57326978 -0.27498913 1.487922 1585741
0.52476138 -0.22500695 1.4627495 1322057
0.5732922 -0.22496065 1.4879582 1256008
0.52485514 -0.17501546 1.4628237 1256521
0.57330292 -0.17495053 1.487992 1190728
0.52482182 -0.12502167 1.4628319 1323340
0.57331473 -0.12502004 1.4880219 1323083
0.52484947 -0.074953526 1.4628717 1191241
0.57342428 -0.075046219 1.4881057 1190985
0.52483636 -0.024956584 1.4628929 1059655
0.57326484 -0.025010988 1.4880497 1191497
0.52485889 0.024939472 1.4629318 1059398
0.57327652 0.025011729 1.4880825 993606
0.52487111 0.074940853 1.4629625 1191240
0.573461 0.075051472 1.4882054 861250
0.52556807 0.10764335 1.4625456 2373969
0.57421905 0.10868429 1.4834863 3557725
0.62478673 0.11394841 1.4708202 10197915
0.67488116 0.11393565 1.470526 10197915
0.72495896 0.11392239 1.4706092 10197915
0.77523351 0.11390956 1.4703183 10197915
0.82509154 0.11389671 1.4701493 10197915
0.87493515 0.11388382 1.4699862 10197915
0.924972 0.11387075 1.4699435 10197915
0.97499758 0.113858 1.4696525 10197915
1.0248075 0.11384513 1.4694835 10197915
1.0748115 0.11383219 1.4693197 10197915
1.1252056 0.11381918 1.4691519 10197915
1.1621479 0.11379977 1.4760115 10197915
0.59805387 -0.66084313 1.5005925 2834260
0.62674779 -0.66404974 1.5154961 2768467
0.67295116 -0.6693837 1.5394913 2571347
0.59807301 -0.62510473 1.5006211 2834260
0.62499034 -0.62500644 1.5146041 2636882
0.67204428 -0.62497795 1.5390462 2373968
0.59806687 -0.57476437 1.5006444 2702675
0.62497741 -0.5749976 1.5146232 2571347
0.6720432 -0.57498729 1.5390784 2308433
0.59808987 -0.52472728 1.5006826 2637139
0.62500376 -0.52500629 1.5146635 2505811
0.67206597 -0.52499467 1.539111 2308690
0.59810299 -0.47500038 1.5007155 2308690
0.6249947 -0.47499248 1.5146846 2242897
0.67208391 -0.47502413 1.5391423 2177361
0.59811604 -0.42527145 1.5007486 2045776
0.6248619 -0.42510292 1.5146418 2045776
0.67191947 -0.42487204 1.5390912 1914448
0.59813899 -0.37522686 1.5007868 1782862
0.62423617 -0.37498808 1.5143434 1848655
0.67086774 -0.37523848 1.5385698 1783119
0.59813303 -0.32487723 1.5008097 1783119
0.62426925 -0.32500729 1.5143882 1783119
0.67049509 -0.32501766 1.5383953 1651276
0.59815586 -0.2748282 1.5008481 1585741
0.62425703 -0.27502492 1.514407 1585997
0.67047817 -0.27501675 1.5384151 1519691
0.59816897 -0.22509046 1.5008813 1190472
0.62429357 -0.22501963 1.5144501 1322057
0.67053479 -0.22501436 1.5384792 1454155
0.5981822 -0.17535053 1.5009141 1190472
0.62424499 -0.17501268 1.514455 1256521
0.67049098 -0.17498496 1.538479 1257034
0.59819543 -0.12498665 1.5009477 1257291
0.62434357 -0.1249829 1.5145324 1257547
0.67059696 -0.12497813 1.538552 1389645
0.59820867 -0.07462053 1.5009811 1190985
0.62424779 -0.075072713 1.5145065 1191498
0.67046994 -0.074871548 1.5385181 1389132
0.5982219 -0.024873991 1.501014 1191497
0.62440562 -0.025099367 1.5146143 1191241
0.67061782 -0.024859779 1.5386267 1257033
0.59823501 0.024874726 1.5010469 1059398
0.62441844 0.025100118 1.5146487 1059398
0.67063373 0.024860516 1.5386521 1125191
0.59824812 0.074625611 1.5010793 860994
0.62428725 0.075077899 1.5146071 795201
0.67051536 0.074876688 1.5386151 860993
0.59825665 0.1069648 1.5011014 1782091
0.62511963 0.10783619 1.5136079 2570834
0.67233342 0.10886334 1.5327123 3885918
0.72485644 0.11385506 1.5183312 10197915
0.77508914 0.1138421 1.5181549 10197915
0.82510465 0.11382897 1.5181217 10197915
0.87510633 0.11381626 1.5178109 10197915
0.92509735 0.1138036 1.5175033 10197915
0.97507596 0.1137903 1.5176066 10197915
1.024835 0.11377762 1.5172955 10197915
1.0750029 0.11376468 1.5171262 10197915
1.1251559 0.11375173 1.5169499 10197915
1.1741567 0.11373789 1.5176328 10197915
1.2084091 0.11371263 1.5291555 10197915
0.74024636 -0.70218951 1.5744352 2308689
0.77209097 -0.70604104 1.5909753 2045775
0.69699758 -0.6722188 1.5519845 2440018
0.7252571 -0.67450702 1.566663 2374225
0.76911169 -0.6750403 1.5894458 2111568
0.69698793 -0.62497306 1.5520043 2373968
0.72493255 -0.62502027 1.566522 2177103
0.76912755 -0.62500894 1.5894791 1979726
0.69699782 -0.5749945 1.5520362 2177104
0.72492975 -0.57501608 1.5665462 2045519
0.76914686 -0.57497567 1.5895145 1914190
0.69701874 -0.52501339 1.552073 2242898
0.72496444 -0.52500957 1.5665897 2111825
0.76916581 -0.52499902 1.5895525 2045776
0.69701767 -0.47503096 1.5520985 2111569
0.72494715 -0.47497901 1.5666074 2046032
0.76918918 -0.47505182 1.5895901 2046033
0.69704926 -0.42504525 1.5521418 1848655
0.72499353 -0.42496806 1.566658 1848655
0.76919794 -0.42504147 1.5896202 1848655
0.69661057 -0.37358487 1.5519413 1783119
0.72500783 -0.37499967 1.5666915 1782862
0.76921928 -0.37496901 1.5896573 1717326
0.69624233 -0.32491204 1.5517752 1387592
0.72502065 -0.32500708 1.5667236 1321800
0.76922035 -0.32498437 1.5896856 1322056
0.69626635 -0.27490136 1.5518138 1387592
0.72504342 -0.27498984 1.5667613 1387849
0.76926434 -0.27505749 1.5897343 1387849
0.69627309 -0.22501805 1.5518433 1585741
0.72502244 -0.22497 1.5667784 1520204
0.76927155 -0.22503802 1.589763 1585997
0.69626236 -0.1752633 1.5518639 1323083
0.72502631 -0.17497048 1.5668069 1388875
0.76926535 -0.17495681 1.5897884 1388619
0.69630408 -0.12537292 1.5519121 1455182
0.72510576 -0.1250132 1.5668734 1389133
0.76927245 -0.12496375 1.589818 1323596
0.6963194 -0.075225383 1.5519459 1389388
0.7252059 -0.07503181 1.5669514 1389132
0.76931727 -0.075028665 1.5898664 1323083
0.69633454 -0.025075618 1.5519805 1322825
0.72501779 -0.025005864 1.5668809 1322569
0.76937628 -0.02502997 1.5899231 1191240
0.69635004 0.02507636 1.5520144 1191240
0.72503585 0.025006611 1.5669161 1191240
0.76939178 0.025030702 1.5899578 1190983
0.69636554 0.075230524 1.5520494 927043
0.72525364 0.074992239 1.5670544 927043
0.76936764 0.075033836 1.5899723 860737
0.69635445 0.10737836 1.5520245 1913163
0.72569412 0.10790294 1.565478 2701906
0.77147186 0.10903405 1.5828515 4148320
0.82490265 0.11375698 1.5691873 10197915
0.87507254 0.11374428 1.5688564 10197915
0.9250133 0.1137314 1.5686789 10197915
0.9749468 0.11371852 1.5685011 10197915
1.024865 0.11370564 1.5683237 10197915
1.0749917 0.11369272 1.568145 10197915
1.1248876 0.11367986 1.5679678 10197915
1.1747756 0.11366697 1.5677903 10197915
1.2222726 0.11365132 1.570031 10197915
1.2557418 0.113621 1.5852951 10197915
0.79433805 -0.7081551 1.6025314 1979983
0.82672918 -0.71228212 1.6193553 2046032
0.86871189 -0.71701211 1.6411606 1914704
0.79393041 -0.67489594 1.6023363 1979983
0.82465017 -0.6749869 1.6182953 1914446
0.86807895 -0.67503029 1.6408548 1914703
0.79396725 -0.62501079 1.6023817 1914190
0.82464689 -0.62495816 1.6183194 1782862
0.86812079 -0.62506199 1.640903 1782861
0.79397273 -0.57512546 1.6024112 1914190
0.82465458 -0.57497376 1.61835 1848654
0.86811143 -0.57501966 1.640925 1717325
0.79400206 -0.52501512 1.6024532 1914704
0.82470965 -0.52498764 1.6184052 1914704
0.86815202 -0.52501082 1.6409739 1783118
0.79399991 -0.47490227 1.6024786 1980240
0.82470381 -0.47497538 1.6184283 1980497
0.86818987 -0.47503549 1.641013 1848911
0.79404545 -0.42500997 1.6025281 1783119
