# .PCD v0.7 - Point Cloud Data file format
VERSION 0.7
FIELDS x y z rgb
SIZE 4 4 4 4
TYPE F F F U
COUNT 1 1 1 1
WIDTH 1161
HEIGHT 1
VIEWPOINT 0 0 0 1 0 0 0
POINTS 1161
DATA ascii
-0.45555097 -0.41321129 0.95310903 1059144
-0.42398286 -0.41688481 0.96945429 993095
-0.38218933 -0.42183185 0.99109221 1124680
-0.70385957 -0.37380621 0.99521983 2894892
-0.69080561 -0.3749949 0.97000474 2894892
-0.45566225 -0.37497628 0.95308036 1059657
-0.42541417 -0.37500772 0.96874219 1124937
-0.38295475 -0.37499696 0.99073094 1190986
-0.70375472 -0.32500362 0.99515265 2894892
-0.69056529 -0.32499379 0.96967959 2894892
-0.45591968 -0.32476664 0.95298415 1191499
-0.42542934 -0.32499883 0.96877289 1191499
-0.38295418 -0.32500526 0.99076831 1191243
-0.70346147 -0.27501482 0.99472505 2894892
-0.69029868 -0.27498621 0.96930224 2894892
-0.45600674 -0.27499384 0.95297605 1191754
-0.42545015 -0.27499714 0.96879941 1191499
-0.38297516 -0.27500182 0.99079365 1191499
-0.70319343 -0.22506417 0.99434566 2894892
-0.69001186 -0.22492777 0.96888858 2894892
-0.45601177 -0.2250057 0.95301086 1059657
-0.42545831 -0.22499204 0.96883333 1059657
-0.38298488 -0.22501151 0.99082643 1059401
-0.70293689 -0.17501345 0.99399018 2894892
-0.68977511 -0.17495088 0.9685694 2894892
-0.45603433 -0.1749935 0.95303637 1059657
-0.42547411 -0.17499481 0.96886247 1059913
-0.38299736 -0.17500164 0.99085736 1059401
-0.70265543 -0.12486407 0.99358553 2894892
-0.68950468 -0.12505835 0.96818566 2894892
-0.45603421 -0.12497863 0.95307374 1059399
-0.42547518 -0.12499405 0.96889663 993863
-0.38300613 -0.12499707 0.99088949 993607
-0.70238793 -0.075027861 0.9932074 2894892
-0.68924165 -0.075024575 0.96781719 2894892
-0.45607051 -0.074898325 0.95309174 993093
-0.42551148 -0.075016476 0.96891618 993093
-0.38304269 -0.074989229 0.99090821 993093
-0.70312738 -0.026044047 0.99477142 2894892
-0.68997353 -0.024799325 0.96937025 2894892
-0.45607227 -0.024897693 0.95312828 1191753
-0.42550388 -0.025026137 0.96895796 1191753
-0.38301367 -0.024986967 0.99096024 1191497
-0.70298505 0.025134455 0.99463814 2894892
-0.68979073 0.024972474 0.9691543 2894892
-0.4560867 0.024898719 0.95315844 1125960
-0.42542809 0.025090387 0.9690361 1125960
-0.3829318 0.024890354 0.99103886 1125447
-0.70270652 0.075171717 0.99423963 2894892
-0.68951869 0.074930474 0.96876961 2894892
-0.45611346 0.074905604 0.95318121 994118
-0.425219 0.075021818 0.96918005 994118
-0.38273406 0.07499902 0.99118072 927299
-0.70250171 0.10892865 0.99482626 4802889
-0.67703795 0.11245333 0.97483885 8026746
-0.63103676 0.11473142 0.97079855 9672086
-0.45603973 0.10759146 0.95315391 1059654
-0.42456862 0.108247 0.96800131 1914446
-0.37954241 0.10969482 0.98452222 3819870
-0.32488874 0.11456563 0.97372526 10197915
-0.27495682 0.11453986 0.97346008 10197915
-0.22494647 0.11451393 0.97331381 10197915
-0.17584127 0.11448561 0.97475797 10197915
-0.12503049 0.11445633 0.97624451 10197915
-0.075036407 0.11443049 0.97600704 10197915
-0.025007667 0.11440461 0.97580355 10197915
0.025000112 0.11437877 0.9755832 10197915
0.074983627 0.11435292 0.97534567 10197915
0.1250028 0.11432715 0.97509599 10197915
0.17499937 0.11430131 0.97488934 10197915
0.22497353 0.11427543 0.97468573 10197915
0.27498248 0.11424953 0.97449654 10197915
0.32514098 0.11422364 0.97424555 10197915
0.37516308 0.11419784 0.97399104 10197915
0.42504629 0.11417194 0.97381938 10197915
0.47507975 0.11414619 0.97356844 10197915
0.52509052 0.11412024 0.97339427 10197915
0.57507885 0.11409449 0.9731279 10197915
0.62504476 0.11406861 0.97293764 10197915
0.67510229 0.11404283 0.9726553 10197915
0.72502267 0.11401694 0.97249663 10197915
0.76406616 0.11398585 0.97850883 10197915
-0.72416252 -0.45636851 1.0342023 2894892
-0.35094258 -0.45025834 1.0072514 1323342
-0.31786472 -0.45416114 1.0243776 1389390
-0.28281498 -0.45822719 1.0425243 1586255
-0.71820903 -0.42489898 1.022791 2894892
-0.35737193 -0.42426449 1.0039446 1125193
-0.32515636 -0.42500097 1.0206233 1256778
-0.28437299 -0.42504433 1.0417418 1388620
-0.71889669 -0.37539256 1.0242578 2894892
-0.35765791 -0.37496883 1.0038328 1191243
-0.3251712 -0.37500837 1.0206524 1323085
-0.28442255 -0.37499675 1.0417529 1388621
-0.71882635 -0.32503802 1.0242611 2894892
-0.35765991 -0.32497931 1.0038608 1125707
-0.32517549 -0.32501245 1.0206896 1191243
-0.28442517 -0.32498476 1.0417901 1191499
-0.71960127 -0.27473786 1.0258986 2894892
-0.3576833 -0.2750054 1.0038903 1191499
-0.32518879 -0.27500722 1.0207173 1257292
-0.28443798 -0.27499077 1.0418196 1257292
-0.71947241 -0.22492251 1.0257869 2894892
-0.35769269 -0.22501014 1.003929 1059657
-0.32520884 -0.22500505 1.0207425 1323597
-0.28444272 -0.22499375 1.041854 1389390
-0.71917641 -0.17498058 1.0253547 2894892
-0.35768962 -0.17502981 1.0039647 1125193
-0.32519072 -0.17499924 1.0207905 1191755
-0.28445199 -0.17500415 1.0418879 1257292
-0.71889126 -0.12499974 1.0249425 2894892
-0.35771039 -0.12500903 1.0039829 1059400
-0.32522026 -0.12499151 1.0208151 993864
-0.28445098 -0.12500086 1.0419252 1454669
-0.7186383 -0.074979439 1.024593 2894892
-0.35772851 -0.074947655 1.0040145 993350
-0.32522315 -0.07501667 1.0208483 993350
-0.28451115 -0.075015567 1.0419309 1257803
-0.71837538 -0.024998097 1.0242234 2894892
-0.35772061 -0.02495802 1.0040627 1125961
-0.32524565 -0.025021316 1.0208746 1125961
-0.28444469 -0.025027411 1.0420024 1257546
-0.71810067 0.024985366 1.0238316 2894892
-0.35773292 0.024959072 1.0040903 1125447
-0.32525742 0.025010116 1.0209062 1191496
-0.28445983 0.025017966 1.0420326 1257289
-0.7177856 0.074967578 1.0233622 2894892
-0.35776117 0.074954994 1.0041038 927300
-0.32525373 0.075011797 1.0209481 993092
-0.28453043 0.075012319 1.0420328 927043
-0.71474147 0.11032303 1.0259054 6118749
-0.67582542 0.11466044 1.0243587 10066329
-0.64418709 0.11466463 1.0125725 8159623
-0.35769731 0.10738279 1.0041409 992835
-0.32460782 0.1081051 1.0199667 1913677
-0.28056431 0.10968579 1.0358541 3819356
-0.22501238 0.1144197 1.0267251 10197915
-0.17502427 0.11439399 1.0264385 10197915
-0.1249981 0.11436808 1.0262446 10197915
-0.07499443 0.11434224 1.0260298 10197915
-0.025013937 0.1143164 1.0257993 10197915
0.025006412 0.11429055 1.0255675 10197915
0.075002357 0.11426479 1.0253158 10197915
0.12503693 0.11423901 1.0250502 10197915
0.17504893 0.11421308 1.0248348 10197915
0.22503829 0.1141873 1.0246221 10197915
0.27500531 0.11416142 1.0244272 10197915
0.32495028 0.1141359 1.0240505 10197915
0.374991 0.11410967 1.024036 10197915
0.42501202 0.11408398 1.0237317 10197915
0.47500941 0.11405832 1.023411 10197915
0.52504474 0.11403234 1.0232501 10197915
0.57499713 0.11400656 1.0230181 10197915
0.62492567 0.11398087 1.0227165 10197915
0.67483252 0.11395494 1.0225743 10197915
0.72489887 0.11392912 1.0223078 10197915
0.77478707 0.113903 1.0223248 10197915
0.81131238 0.11386294 1.0341357 10197915
-0.75407916 -0.46937183 1.0919461 2894892
-0.74157053 -0.46388263 1.0678031 2894892
-0.25886056 -0.46099341 1.0549262 1652048
-0.22358927 -0.4650934 1.0731882 1652048
-0.1854407 -0.4696629 1.09294 1651535
-0.75371724 -0.42500773 1.0913706 2894892
-0.74045163 -0.42496353 1.0657495 2894892
-0.25949278 -0.42492035 1.0546263 1388364
-0.22524065 -0.42500767 1.0723627 1783633
-0.18604694 -0.42499322 1.0926583 1849426
-0.7534129 -0.37482983 1.0909221 2894892
-0.74020863 -0.37498802 1.0654194 2894892
-0.25953734 -0.3750096 1.0546403 1322572
-0.22524972 -0.37499374 1.0723938 1586512
-0.18605365 -0.37500498 1.092693 1717841
-0.75314206 -0.3248376 1.0905372 2894892
-0.73993939 -0.32498801 1.0650382 2894892
-0.25953788 -0.32500997 1.0546771 1257292
-0.22525965 -0.32499757 1.0724304 1323085
-0.18606809 -0.32499966 1.0927216 1454670
-0.75282311 -0.27503735 1.0900599 2894892
-0.74075079 -0.27535173 1.0667434 2894892
-0.25955388 -0.27498889 1.0547062 1323085
-0.22525854 -0.27500561 1.0724627 1323085
-0.18605609 -0.27500513 1.0927656 1388877
-0.75386238 -0.22555567 1.0922033 2894892
-0.74188608 -0.2248989 1.0690756 2894892
-0.25955099 -0.22500122 1.0547447 1454926
-0.22527429 -0.22499627 1.0724965 1455183
-0.18608463 -0.22500747 1.0927883 1520719
-0.75491071 -0.17444891 1.0943708 2894892
-0.74167186 -0.17509034 1.0687996 2894892
-0.25957552 -0.17499249 1.0547694 1323341
-0.2252748 -0.17499779 1.0725311 1388877
-0.18607548 -0.17502022 1.092828 1389134
-0.75470954 -0.12495454 1.0941198 2894892
-0.74140114 -0.12500812 1.0684166 2894892
-0.25956023 -0.12498002 1.0548147 1454925
-0.22527842 -0.12500317 1.0725664 1520718
-0.18607992 -0.12503043 1.0928661 1586511
-0.75440484 -0.074914306 1.0936697 2894892
-0.74106508 -0.075027913 1.0679064 2894892
-0.25960791 -0.074910685 1.054827 1323596
-0.22531039 -0.075026929 1.0725893 1388876
-0.18610126 -0.074954636 1.0928904 1323340
-0.75413305 -0.02491297 1.0932838 2894892
-0.74082178 -0.02502235 1.067575 2894892
-0.25957668 -0.024910238 1.0548804 1257803
-0.22529361 -0.025026696 1.0726308 1257804
-0.18608686 -0.024944931 1.0929363 1323340
-0.75384575 0.024900327 1.0928674 2894892
-0.74053818 0.025009589 1.0671664 2894892
-0.25958461 0.024911297 1.0549134 1257290
-0.22530055 0.025027728 1.0726678 1257546
-0.18609329 0.024945995 1.0929691 1323339
-0.75354135 0.074825384 1.0924183 2894892
-0.74024177 0.075064547 1.0667329 2894892
-0.25963208 0.07491795 1.054926 926786
-0.22532947 0.075034194 1.0726866 992836
-0.18611908 0.074961901 1.0929948 1124677
-0.75325084 0.10778964 1.0922525 3947580
-0.72695285 0.11252255 1.0719944 8224125
-0.68631941 0.11459085 1.0668794 9408915
-0.25945899 0.10726086 1.0550259 794687
-0.22461782 0.108011 1.0717959 1847115
-0.18141697 0.10977519 1.0865756 4148577
-0.12499183 0.11427769 1.0774679 10197915
-0.074979007 0.11425175 1.0773228 10197915
-0.024988357 0.11422607 1.0770059 10197915
0.024980823 0.11420025 1.0767627 10197915
0.075000621 0.1141743 1.0765805 10197915
0.12499766 0.11414865 1.0762761 10197915
0.17497252 0.11412294 1.0759979 10197915
0.22499909 0.11409711 1.0757772 10197915
0.27500245 0.1140712 1.0755836 10197915
0.32483515 0.11404546 1.0753402 10197915
0.37479502 0.11401985 1.0750259 10197915
0.42495286 0.1139937 1.0749164 10197915
0.47493991 0.11396807 1.0745612 10197915
0.52497864 0.11394225 1.0743197 10197915
0.57499534 0.11391649 1.0740744 10197915
0.62498868 0.11389058 1.0738826 10197915
0.67503268 0.11386474 1.0736248 10197915
0.72505629 0.11383906 1.0733218 10197915
0.77498114 0.11381312 1.0731757 10197915
0.82359129 0.11378603 1.074075 10197915
0.85777098 0.11374323 1.0881509 10197915
-0.77834535 -0.50472414 1.138714 2894892
-0.11271601 -0.50291419 1.1305742 2046291
-0.086645745 -0.50594896 1.1440721 2177620
-0.77101558 -0.4742927 1.1246423 2894892
-0.16078545 -0.47218007 1.105705 1651535
-0.12513399 -0.47482914 1.124164 1848656
-0.087657936 -0.47499797 1.1435719 2045778
-0.77045387 -0.42497361 1.1236955 2894892
-0.16121745 -0.42502606 1.1055163 1849426
-0.125276 -0.42499915 1.1241286 1915218
-0.087641478 -0.42498526 1.1436158 1980754
-0.77014774 -0.3750194 1.1232426 2894892
-0.16121934 -0.37501013 1.1055533 1783633
-0.12527376 -0.37500027 1.1241673 1849170
-0.087655187 -0.37500364 1.1436464 1849170
-0.76984978 -0.3250522 1.1228055 2894892
-0.16123508 -0.32500824 1.1055816 1520206
-0.1252877 -0.32499745 1.1241987 1520463
-0.087654568 -0.32500163 1.1436853 1585999
-0.76955003 -0.27507052 1.122365 2894892
-0.16124099 -0.27502087 1.1056163 1388878
-0.12529539 -0.27499235 1.1242303 1454670
-0.087652318 -0.27497888 1.1437217 1454414
-0.76925689 -0.22497234 1.1219378 2894892
-0.16122763 -0.2249953 1.1056597 1586512
-0.1252808 -0.22500031 1.124274 1586512
-0.087661915 -0.22498806 1.1437541 1586512
-0.77139461 -0.17444503 1.126206 2894892
-0.16124313 -0.17494901 1.105689 1454926
-0.12529074 -0.17500433 1.1243048 1454926
-0.08766406 -0.17501169 1.1437923 1389134
-0.77153581 -0.12499063 1.1266178 2894892
-0.16125241 -0.12498751 1.1057216 1586511
-0.12530901 -0.12498939 1.1243339 1586511
-0.087834202 -0.12523857 1.1437399 1586511
-0.77126563 -0.07506986 1.1262337 2894892
-0.16121642 -0.075040288 1.1057771 1323340
-0.12529145 -0.074971631 1.1243802 1323340
-0.088151485 -0.075096011 1.1436119 1388619
-0.77098334 -0.025032902 1.1258277 2894892
-0.1612858 -0.025021195 1.1057791 1389388
-0.12532011 -0.024983648 1.1244047 1454925
-0.088115044 -0.025093744 1.1436702 1389132
-0.77068859 0.025020132 1.1253971 2894892
-0.16129147 0.02502225 1.1058129 1191497
-0.12532468 0.024984697 1.12444 1323083
-0.088117965 0.025094774 1.1437056 1257033
-0.77038223 0.074980624 1.1249425 2894892
-0.16123132 0.075047597 1.1058816 1058885
-0.12530905 0.074970737 1.1244831 1058629
-0.088159986 0.075085096 1.1437187 1058885
-0.76603472 0.11067752 1.1271768 6645093
-0.72878563 0.11451874 1.1203949 9737623
-0.69725281 0.11453564 1.1014494 6713209
-0.16113606 0.10729294 1.1059026 992066
-0.12460108 0.10802879 1.1232626 1978699
-0.082563736 0.10988125 1.1359334 4411491
-0.025066247 0.11414233 1.1245248 10197915
0.025058674 0.11411642 1.1242703 10197915
0.075066432 0.11409048 1.1241164 10197915
0.12505125 0.11406493 1.123762 10197915
0.17501409 0.11403918 1.1234733 10197915
0.22495437 0.11401332 1.1232551 10197915
0.27496469 0.11398748 1.1230345 10197915
0.3248592 0.11396169 1.1228133 10197915
0.37491885 0.11393598 1.1224935 10197915
0.42585889 0.11390373 1.1256627 10197915
0.47502893 0.11387632 1.1265574 10197915
0.52508062 0.11385047 1.1263152 10197915
0.57503182 0.11382486 1.1259751 10197915
0.62496102 0.11379902 1.1257784 10197915
0.67509943 0.11377314 1.1255374 10197915
0.72513908 0.11374746 1.1251955 10197915
0.77507687 0.11372171 1.1249851 10197915
0.82514828 0.11369572 1.1247714 10197915
0.8717289 0.11366624 1.127674 10197915
0.90524083 0.11361896 1.1444865 10197915
-0.8045795 -0.51615244 1.18935 2894892
-0.79252058 -0.51091653 1.1660745 2894892
-0.062060609 -0.50879252 1.156801 2309204
-0.023479229 -0.51326174 1.1767747 2506069
0.010871563 -0.51745611 1.1945617 2703190
-0.80414075 -0.47503957 1.1886166 2894892
-0.79157311 -0.47503752 1.1643438 2894892
-0.062757529 -0.47499144 1.1564665 2111826
-0.025324892 -0.47499767 1.1758553 2243155
0.010392508 -0.47501019 1.1943446 2440020
-0.80385435 -0.42481363 1.1882029 2894892
-0.79126006 -0.42509553 1.1638776 2894892
-0.062769979 -0.42500007 1.1564991 2046291
-0.025330121 -0.42498559 1.1758852 2112083
0.010400326 -0.42502493 1.1943865 2308948
-0.80354875 -0.37495303 1.1877514 2894892
-0.79099363 -0.37499756 1.1635029 2894892
-0.062767297 -0.37500563 1.156532 1914962
-0.025335701 -0.37498912 1.1759127 1980498
0.010390361 -0.3749896 1.1944187 2111826
-0.80523908 -0.32630572 1.1911514 2894892
-0.79126149 -0.32391259 1.1641623 2894892
-0.062768623 -0.32498997 1.1565688 1651791
-0.025341375 -0.32500812 1.1759462 1651534
0.010384141 -0.32497427 1.1944511 1585485
-0.80613899 -0.27497864 1.1930319 2894892
-0.79188877 -0.2750752 1.1655092 2894892
-0.062775314 -0.27500701 1.1566104 1520206
-0.025336059 -0.27500534 1.1759901 1585998
0.010386243 -0.27500281 1.1944915 1585998
-0.80585182 -0.22480766 1.1926165 2894892
-0.79160184 -0.22517398 1.165094 2894892
-0.062776119 -0.22503853 1.1566411 1586512
-0.025332348 -0.22498979 1.1760328 1717841
0.010412925 -0.22502878 1.1945416 1652304
-0.80554467 -0.17483811 1.1921614 2894892
-0.7923519 -0.17612158 1.1666782 2894892
-0.062779725 -0.17503157 1.1566739 1454926
-0.025334928 -0.17499055 1.1760731 1454926
0.010386055 -0.17500463 1.1945645 1389134
-0.80521715 -0.12507236 1.1916677 2894892
-0.79251528 -0.12485522 1.1671364 2894892
-0.06294816 -0.12480132 1.1566279 1652047
-0.025348069 -0.12502521 1.1761036 1652047
0.010357312 -0.12497655 1.1945864 1652047
-0.80493063 -0.075015172 1.1912533 2894892
-0.79224819 -0.074826978 1.1667595 2894892
-0.063278966 -0.074932575 1.1564956 1256778
-0.0253083 -0.075038172 1.1761547 1257034
0.010460775 -0.074992172 1.1946787 1322570
-0.80460155 -0.024997585 1.1907562 2894892
-0.79193419 -0.02493445 1.1662912 2894892
-0.063221775 -0.02491563 1.1565553 1059399
-0.025353348 -0.025010979 1.1761626 1059656
0.010357958 -0.025007699 1.1946621 1125449
-0.80429417 0.024984844 1.1903013 2894892
-0.79164374 0.025018603 1.1658688 2894892
-0.063223459 0.024916647 1.1565963 1059399
-0.025354115 0.025012031 1.1762016 1059399
0.010358263 0.025008759 1.194699 1124935
-0.80400825 0.074926041 1.1898879 2894892
-0.79132885 0.075124048 1.1654 2894892
-0.06328249 0.074922696 1.1566069 1058886
-0.025313621 0.075017408 1.1762636 1124935
0.010461749 0.074999459 1.1947904 1125191
-0.8036465 0.10835192 1.1901261 4605510
-0.77760041 0.11268762 1.1738859 8421505
-0.74214202 0.11444826 1.1643174 8488330
-0.063021392 0.10748243 1.1564676 1255236
-0.024697244 0.10823827 1.1739501 2373457
0.017247567 0.11024255 1.1838185 5135211
0.075001106 0.11400795 1.1709168 10197915
0.12494302 0.11398193 1.1708052 10197915
0.17505525 0.11395616 1.1705035 10197915
0.22514476 0.11393029 1.1702743 10197915
0.27608776 0.11390138 1.1715122 10197915
0.32498282 0.11387023 1.1746382 10197915
0.37494096 0.1138445 1.1743598 10197915
0.4241136 0.11381317 1.1774998 10197915
0.47506034 0.11378435 1.1786907 10197915
0.52504545 0.11375839 1.1785408 10197915
0.57500839 0.11373284 1.178156 10197915
0.62494808 0.11370689 1.1780074 10197915
0.67486614 0.1136814 1.1776242 10197915
0.72485727 0.11365543 1.1774733 10197915
0.77482677 0.1136298 1.1771286 10197915
0.82477456 0.11360393 1.1769407 10197915
0.87489253 0.11357825 1.1765974 10197915
0.91918993 0.113548 1.1805819 10197915
0.95065439 0.11350358 1.1963869 10197915
-0.83287531 -0.55335832 1.2438958 2894892
0.092656814 -0.5516783 1.2368872 3162197
0.10976461 -0.55369228 1.2457448 3227989
-0.82337099 -0.52319294 1.2256234 2894892
0.036143582 -0.52002281 1.2076465 2834262
0.075337335 -0.52415025 1.2279389 2965590
0.108856 -0.52498496 1.2452952 3097175
-0.8223176 -0.4749884 1.2237225 2894892
0.035522234 -0.47499242 1.2073581 2571605
0.074775085 -0.47501189 1.2276843 2768726
0.10884991 -0.47498679 1.2453297 2834261
-0.82205731 -0.42501473 1.2233588 2894892
0.035507187 -0.42498681 1.2073876 2374740
0.074762106 -0.42500824 1.2277142 2505812
0.10888364 -0.42501628 1.2453839 2637140
-0.82168752 -0.37501562 1.2227829 2894892
0.035520159 -0.37501255 1.2074319 2177362
0.074759483 -0.37501177 1.227751 2308947
0.10885559 -0.3749814 1.2454073 2440276
-0.82300317 -0.3251811 1.225463 2894892
0.03551862 -0.32501736 1.2074682 1651021
0.074791022 -0.32501256 1.2278037 1848399
0.10887067 -0.32497376 1.2454519 1913934
-0.82279462 -0.27496594 1.2251993 2894892
0.035508484 -0.27500209 1.2075 1651791
0.074764952 -0.27499923 1.2278283 1782863
0.10881991 -0.27515668 1.2454625 1717069
-0.82246011 -0.22492009 1.2246926 2894892
0.035519149 -0.22500099 1.2075424 1783633
0.074763842 -0.22499377 1.2278669 1849168
0.10832893 -0.22496107 1.2452464 1914961
-0.82215613 -0.17491026 1.224244 2894892
0.035531785 -0.17499641 1.2075859 1520462
0.074805923 -0.17499578 1.227922 1652047
0.10835938 -0.17495738 1.2452987 1718096
-0.82186323 -0.12501401 1.223816 2894892
0.035505548 -0.12498884 1.2076091 1652047
0.074778564 -0.1249945 1.2279468 1652047
0.10831262 -0.12504759 1.2453111 1652047
-0.82152969 -0.075081415 1.2233108 2894892
0.035499375 -0.075013727 1.2076435 1257034
0.074756622 -0.07500115 1.227972 1257034
0.10839948 -0.075003512 1.2453945 1257034
-0.82286942 -0.024899827 1.2260382 2894892
0.035554629 -0.025016854 1.2077096 1125449
0.07480932 -0.025005544 1.228035 1191241
0.10831942 -0.024961019 1.2453896 1125961
-0.82261783 0.025007766 1.2256908 2894892
0.035555754 0.025017884 1.2077475 1125191
0.074811786 0.025006613 1.2280769 1125192
0.10832276 0.02496206 1.2454286 1125191
-0.82232094 0.074995376 1.2252564 2894892
0.035504796 0.074986421 1.2077582 1191240
0.074766107 0.074997582 1.2280898 1191497
0.1084097 0.075010814 1.2455115 1257289
-0.8174926 0.11076842 1.228497 6842472
-0.78507775 0.11437034 1.2212715 9343123
0.035713293 0.10747046 1.2074376 1518921
0.075454012 0.10828771 1.2251898 2636884
0.11741152 0.11065432 1.2326472 5792882
0.17499836 0.11386621 1.2215147 10197915
0.22494768 0.11384036 1.2213268 10197915
0.27382767 0.11381309 1.2222252 10197915
0.3249554 0.11377943 1.226102 10197915
0.37503129 0.11375374 1.2257968 10197915
0.42495564 0.1137281 1.2254639 10197915
0.474859 0.11370232 1.2252429 10197915
0.52499199 0.11367641 1.225019 10197915
0.57510173 0.11365071 1.2246866 10197915
0.62506407 0.11362512 1.2243268 10197915
0.67487484 0.11359929 1.2241603 10197915
0.72479212 0.11357366 1.2238561 10197915
0.77506328 0.11354783 1.2235248 10197915
0.82518762 0.11352187 1.2233262 10197915
0.87503517 0.11349629 1.2230227 10197915
0.92533302 0.11346976 1.223098 10197915
0.96602249 0.11342762 1.234875 10197915
-0.85726243 -0.5637989 1.2909672 2894892
-0.84488875 -0.55840498 1.2670838 2894892
0.13549095 -0.55665761 1.2590643 3424853
0.17708407 -0.56150001 1.2805996 3622487
0.20740604 -0.56495351 1.2962989 3819609
-0.85676289 -0.52484798 1.29011 2894892
-0.84375489 -0.52486688 1.2649873 2894892
0.13397022 -0.52500296 1.2583003 3228246
0.17492907 -0.52501297 1.2795099 3491416
0.20729335 -0.52494562 1.2962699 3557209
-0.85643691 -0.4749611 1.2896198 2894892
-0.84345293 -0.47489882 1.2645429 2894892
0.13398345 -0.4750087 1.2583441 3031383
0.17493123 -0.47499532 1.2795482 3228503
0.20730726 -0.47497264 1.2963159 3294296
-0.85611212 -0.4251121 1.28913 2894892
-0.84311312 -0.42496869 1.2640245 2894892
0.13398243 -0.42499372 1.2583818 2702932
0.17493406 -0.42499876 1.2795883 2768468
0.20729923 -0.42495063 1.2963463 2834260
-0.85575902 -0.37512627 1.288587 2894892
-0.84280139 -0.37494391 1.2635614 2894892
0.13397558 -0.37501132 1.2584157 2505812
0.17495161 -0.37498644 1.2796352 2571604
0.20732555 -0.37497076 1.2963979 2571604
-0.85543311 -0.32517359 1.2880962 2894892
-0.84250879 -0.32495961 1.2631363 2894892
0.1339975 -0.32500795 1.2584639 1979727
0.17495249 -0.32498312 1.2796711 1979726
0.20730475 -0.32503271 1.2964245 2045775
-0.85513312 -0.27508336 1.2876561 2894892
-0.84215885 -0.27501246 1.2625988 2894892
0.1339301 -0.27490598 1.2584665 1651020
0.17495097 -0.27500072 1.2797078 1782862
0.20733213 -0.27500209 1.2964759 1782862
-0.85478091 -0.22521006 1.2871139 2894892
-0.84182882 -0.22510342 1.2620994 2894892
0.13344029 -0.22501884 1.2582492 1849425
0.17495185 -0.2249914 1.2797445 1783376
0.20732598 -0.22496758 1.2965096 1849425
-0.85448277 -0.17537257 1.2866766 2894892
-0.84154582 -0.17510013 1.2616917 2894892
0.13346782 -0.17501594 1.2583007 1718096
0.1749931 -0.17499065 1.2798046 1717840
0.20735785 -0.17502002 1.2965639 1717840
-0.85412782 -0.12504078 1.2861308 2894892
-0.84119517 -0.12500513 1.2611536 2894892
0.13343942 -0.12495825 1.2583238 1586511
0.17496066 -0.12499893 1.2798254 1586511
0.20731826 -0.12498079 1.296579 1586511
-0.85422802 -0.07689587 1.2864586 2894892
-0.84148228 -0.073742934 1.2618499 2894892
0.13343102 -0.074984916 1.2583561 1257034
0.17495465 -0.074992083 1.279858 1257034
0.20739184 -0.075024329 1.2966555 1257034
-0.85685837 -0.023193585 1.2916874 2894892
-0.84409338 -0.025187133 1.2670282 2894892
0.13350166 -0.025024774 1.2584298 1191241
0.17500545 -0.024994932 1.2799215 1125705
0.2067505 -0.025097542 1.2963622 1125705
-0.85693634 0.024978207 1.2919716 2894892
-0.84387279 0.02505837 1.2667418 2894892
0.13350582 0.025025846 1.2584699 1125191
0.17501099 0.024995992 1.2799621 1125448
0.20675705 0.025098601 1.2964015 1125192
-0.85663646 0.074905597 1.2915313 2894892
-0.84356874 0.075146943 1.2662936 2894892
0.13344355 0.074992217 1.2584741 1257289
0.17497063 0.074999355 1.2799792 1191753
0.20681849 0.075046785 1.2964709 1191754
-0.8557514 0.10855858 1.2913376 4868682
-0.83068281 0.11243082 1.2735081 8092797
-0.79702777 0.1143085 1.2598883 5989746
0.13373739 0.10730806 1.2583159 1453641
0.17557815 0.1081697 1.2772473 2571091
0.21710876 0.11080401 1.2820129 6187382
0.27496952 0.1137266 1.2709246 10197915
0.32571328 0.11369893 1.2715056 10197915
0.37493584 0.11366509 1.276069 10197915
0.42506215 0.11363928 1.2757834 10197915
0.47516832 0.11361324 1.2756392 10197915
0.52503842 0.11358783 1.2752022 10197915
0.57499295 0.11356195 1.2750137 10197915
0.62502992 0.11353655 1.2745287 10197915
0.67504305 0.11351047 1.2744355 10197915
0.7250368 0.11348478 1.2741463 10197915
0.77500343 0.11345941 1.2736621 10197915
0.82495117 0.11343337 1.2735695 10197915
0.8749795 0.11340779 1.2731845 10197915
0.92468917 0.11338163 1.2732344 10197915
0.97495991 0.11334597 1.2785108 10197915
1.0114948 0.11331312 1.286262 10197915
-0.88482881 -0.60083717 1.3441043 2894892
0.29767165 -0.60035014 1.3430147 4214621
0.30608237 -0.60144567 1.3473693 4280668
-0.87545913 -0.57168877 1.3260884 2894892
0.23281612 -0.5679478 1.3094531 3951193
0.27562207 -0.572842 1.331617 4017243
0.30525079 -0.57507735 1.3469584 4148828
-0.87421733 -0.52513361 1.32382 2894892
0.23212671 -0.52500147 1.3091279 3688794
0.27462968 -0.52499229 1.3311398 3754330
0.30524781 -0.52505708 1.3469937 3688794
-0.87382585 -0.47504455 1.3232032 2894892
0.23213944 -0.47501096 1.3091749 3360088
0.27464059 -0.47500095 1.3311813 3360088
0.30526057 -0.47503394 1.3470383 3294039
-0.87355113 -0.42499429 1.3228106 2894892
0.23214461 -0.42501733 1.3092104 2834004
0.27466565 -0.42500731 1.3312306 2834261
0.30526394 -0.42507014 1.3470769 2834261
-0.87519014 -0.3749347 1.3261156 2894892
0.23215355 -0.37500274 1.3092557 2637140
0.27465957 -0.37501189 1.3312669 2571604
0.30528283 -0.37504056 1.3471239 2571604
-0.87490749 -0.32497171 1.3257089 2894892
0.2321413 -0.32500315 1.3092883 2045519
0.27465844 -0.32501161 1.3313024 2045776
0.30528939 -0.32494605 1.3471645 2111569
-0.87453562 -0.27496785 1.3251292 2894892
0.23217784 -0.27500001 1.3093393 1782863
0.27467784 -0.27502266 1.331349 1848399
0.30527359 -0.27497268 1.3471935 1848655
-0.87419015 -0.22484605 1.3246015 2894892
0.23217516 -0.22499345 1.3093779 1849425
0.27468798 -0.22503062 1.3313931 1849425
0.30532423 -0.22499593 1.3472574 1849169
-0.87390608 -0.17483865 1.3241915 2894892
0.23217343 -0.17500255 1.309415 1717840
0.27469471 -0.17502162 1.3314328 1717840
0.30533046 -0.17489167 1.3472974 1717840
-0.8735224 -0.12502863 1.3235894 2894892
0.23217367 -0.12504448 1.3094479 1586510
0.27468327 -0.12496809 1.3314638 1586254
0.30533692 -0.12497041 1.3473375 1520718
-0.87320292 -0.075020313 1.3231103 2894892
0.23216744 -0.074993379 1.3094869 1257290
0.27477276 -0.07495252 1.3315483 1257034
0.30501676 -0.075898327 1.3472084 1257034
-0.87425852 -0.02580403 1.3252853 2894892
0.23164926 -0.024950678 1.3092567 1125705
0.27468488 -0.024990635 1.33154 1125705
0.30471659 -0.02511364 1.3470907 1191241
-0.8745448 0.024993874 1.3259801 2894892
0.23165645 0.024951696 1.3092917 1125191
0.27469426 0.024991697 1.3315818 1059655
0.30472606 0.025114674 1.3471333 1059656
-0.87422496 0.074954256 1.325501 2894892
0.23158775 0.074996427 1.3092972 1191753
0.27479917 0.074959926 1.3316729 1125191
0.30471438 0.075208195 1.3471651 1125704
-0.8682673 0.11085299 1.3275366 7039851
-0.84017575 0.11423087 1.3166966 8619915
0.23195432 0.10754432 1.3087417 1716555
0.27532953 0.10828443 1.3277035 2767956
0.31736398 0.11127233 1.3290615 6910331
0.37687066 0.11357182 1.3283495 10197915
0.42495787 0.11354303 1.3303646 10197915
0.47487107 0.11351718 1.3301704 10197915
0.52503496 0.11349145 1.3298336 10197915
0.57490122 0.11346576 1.3295681 10197915
0.62488407 0.1134403 1.3291302 10197915
0.67511606 0.11341425 1.3289644 10197915
0.72519147 0.11338857 1.3286281 10197915
0.77496827 0.11336292 1.3283631 10197915
0.82499468 0.11333739 1.32796 10197915
0.87513798 0.11331149 1.3277251 10197915
0.92512035 0.11328574 1.3274584 10197915
0.97508156 0.11326012 1.3271232 10197915
1.0241163 0.11323333 1.3277175 10197915
1.0587436 0.1131908 1.3415222 10197915
-0.9066847 -0.61225963 1.3954962 2039583
-0.89445531 -0.60476786 1.3626854 2894892
0.33348227 -0.60460937 1.361555 4214620
0.3772985 -0.60967296 1.384241 4083292
0.40394419 -0.61329329 1.3980366 3820379
-0.90656573 -0.57504362 1.3946741 2039583
-0.89294219 -0.57483822 1.3598449 2894892
0.3301371 -0.57500958 1.3598436 4017499
0.37468213 -0.57499188 1.3829116 3754073
0.40365008 -0.57497144 1.3979127 3491160
-0.90652925 -0.52496791 1.3946381 2039583
-0.89263403 -0.52487087 1.3593887 2894892
0.33014867 -0.52501804 1.3598881 3623002
0.37471682 -0.52498275 1.3829682 3491673
0.40368158 -0.52494979 1.3979663 3425625
-0.90645581 -0.47498551 1.3945323 2039583
-0.89226276 -0.47494486 1.3588111 2894892
0.33015183 -0.4750036 1.3599277 3228503
0.37473994 -0.47498545 1.3830171 3162968
0.40368798 -0.4749251 1.3980072 3031639
-0.90640432 -0.42500886 1.3944254 2039583
-0.89195377 -0.4248665 1.3583539 2894892
0.33016074 -0.42496869 1.3599691 2768724
0.37471262 -0.42500052 1.3830394 2702932
0.40369433 -0.4248977 1.3980477 2702932
-0.90648907 -0.37542278 1.3947762 2039583
-0.89433253 -0.37281087 1.3630916 2829099
0.33017731 -0.37498629 1.3600159 2506068
0.37472895 -0.37501195 1.3830853 2440275
0.4037005 -0.37486741 1.398088 2440019
-0.90714478 -0.3253451 1.3957102 2039583
-0.89546031 -0.32489139 1.3654034 2829099
0.3301973 -0.32500082 1.3600622 2045775
0.37477365 -0.32500568 1.3831452 1914191
0.40372592 -0.32494912 1.3981383 1914191
-0.90716356 -0.2750048 1.3955945 2039583
-0.89512002 -0.27500719 1.3648853 2829099
0.33018598 -0.27497423 1.3600947 1782863
0.3747637 -0.27499613 1.3831776 1717070
0.40373838 -0.27514362 1.3981826 1717326
-0.90713114 -0.22516777 1.3955833 2039583
-0.89481026 -0.22497261 1.3644259 2894892
0.33021617 -0.22498284 1.3601465 1783632
0.37479094 -0.22499821 1.383229 1718096
0.40376359 -0.22521809 1.3982321 1652304
-0.90708935 -0.17507018 1.3955047 2039583
-0.89446986 -0.17516266 1.3639069 2894892
0.33022571 -0.17500693 1.3601879 1652304
0.37476438 -0.17501271 1.3832529 1652303
0.40377012 -0.17505926 1.398273 1586511
-0.90708435 -0.12477029 1.3954525 2039583
-0.89409733 -0.12520328 1.3633251 2894892
0.33020866 -0.12497117 1.3602183 1389133
0.37480298 -0.12503858 1.3833102 1389389
0.40375766 -0.12478416 1.3983036 1389389
-0.90703547 -0.074732073 1.3954046 2039583
-0.89378649 -0.075093634 1.3628651 2894892
0.32995501 -0.074732058 1.3601234 1257034
0.37486273 -0.07504636 1.3833778 1257034
0.40378901 -0.074732497 1.3983573 1191498
-0.90696537 -0.024909647 1.3952936 2039583
-0.89341342 -0.02502401 1.3622822 2894892
0.329555 -0.02497361 1.3599524 1125705
0.37477267 -0.02502251 1.383369 1125705
0.40380168 -0.024911515 1.3984009 1125705
-0.90689474 0.024959918 1.395171 2039583
-0.89307112 0.025011253 1.3617607 2894892
0.32956415 0.024974635 1.3599967 1059655
0.3747797 0.025008461 1.3834096 1125448
0.40381423 0.024912568 1.3984444 1125448
-0.90702802 0.074444257 1.3947136 2039583
-0.89276153 0.075004295 1.3613013 2894892
0.32967311 0.074939616 1.3600878 1191753
0.37490177 0.075038649 1.3835112 1257546
0.40382668 0.074739754 1.3984884 1257546
-0.90683252 0.10753158 1.394511 2500134
-0.88460314 0.1122164 1.3706944 7434868
0.33010301 0.10747908 1.3593636 1782348
0.37500688 0.10808982 1.3803231 2637140
0.41852242 0.11133111 1.3831587 7305087
0.47521636 0.11343633 1.3759162 10197915
0.52506995 0.11341055 1.3757087 10197915
0.57509106 0.11338522 1.3751924 10197915
0.62508851 0.11335916 1.3750858 10197915
0.67525363 0.11333358 1.3746717 10197915
0.72520822 0.11330792 1.3743583 10197915
0.77513719 0.11328227 1.3740494 10197915
0.82504678 0.11325661 1.3737363 10197915
0.87493044 0.113231 1.373428 10197915
0.92498332 0.11320511 1.3732175 10197915
0.97501206 0.11317958 1.3728044 10197915
1.0264524 0.11314849 1.3751426 10197915
1.0720724 0.11311313 1.3816084 10197915
1.1059672 0.11306746 1.397403 10197915
-0.90112805 -0.61332434 1.4005955 2039583
-0.89405578 -0.6141988 1.4042561 1843493
0.42971879 -0.6156522 1.4113828 3754587
0.47609681 -0.62113023 1.4353906 3359831
0.50248355 -0.62413591 1.4490558 3228502
-0.90115535 -0.57504505 1.4006385 2039583
-0.89417708 -0.57505256 1.4042517 1909029
0.42839789 -0.57498401 1.41073 3359831
0.4749414 -0.575023 1.4348344 3162710
0.50247526 -0.57492834 1.4490882 3096917
-0.90119159 -0.52516299 1.4006943 2039583
-0.89420545 -0.52499723 1.4043118 1842980
0.42841971 -0.52500224 1.4107758 3294296
0.47499493 -0.52500439 1.434894 3031381
0.50251442 -0.52491438 1.4491457 2965589
-0.90122747 -0.47527692 1.4007502 2039583
-0.89425039 -0.47493759 1.4043633 1842980
0.42842707 -0.47501609 1.410818 2965847
0.47496489 -0.47500038 1.4349128 2768468
0.50250661 -0.4751015 1.4491786 2702675
-0.90126318 -0.42538694 1.400806 2039583
-0.89417213 -0.42458335 1.4044784 1843236
0.42843407 -0.42502818 1.4108596 2505811
0.47499946 -0.42501017 1.4349763 2440019
0.50240737 -0.4267197 1.4491632 2374226
-0.90129256 -0.37529743 1.4008653 2039583
-0.89387393 -0.37494314 1.4047068 1843494
0.42846739 -0.37501755 1.4109111 2308947
0.47501647 -0.37501639 1.4350163 2243154
0.50182676 -0.37486002 1.4489013 2177105
-0.90170538 -0.32410932 1.4007281 2039583
-0.89391339 -0.3249498 1.4047616 1843494
0.42845088 -0.3250038 1.4109437 1848398
0.47503793 -0.32500315 1.435065 1782862
0.50182486 -0.3250536 1.4489373 1782862
-0.9018091 -0.27492383 1.4007478 2039583
-0.89395094 -0.27499422 1.4048169 1777702
0.42847213 -0.27498761 1.4109899 1585741
0.47505137 -0.27498651 1.4351127 1585997
0.50184941 -0.27493647 1.4489874 1585741
-0.90185052 -0.22473706 1.4008014 2039583
-0.8939963 -0.22507635 1.4048676 1777958
0.42849842 -0.22496776 1.4110392 1388106
0.47503927 -0.22498357 1.435137 1454156
0.50186509 -0.22511871 1.4490328 1388363
-0.90187895 -0.17468815 1.4008616 2039583
-0.8940267 -0.1751544 1.4049269 1777701
0.42851323 -0.17498222 1.4110883 1322827
0.47509164 -0.17497773 1.4352056 1322570
0.50188071 -0.17529786 1.449078 1256264
-0.90191507 -0.12478218 1.4009169 2039583
-0.89405262 -0.12514479 1.4049872 1843237
0.42854053 -0.12499428 1.4111351 1389133
0.47508928 -0.12500228 1.435244 1323340
0.50189656 -0.12487362 1.4491235 1323084
-0.90195143 -0.074872233 1.400973 2039583
-0.89408839 -0.075089797 1.4050431 1843493
0.42850897 -0.075077802 1.411157 1191498
0.47501323 -0.074990906 1.4352363 1191241
0.501912 -0.075046524 1.4491683 1125705
-0.90198702 -0.024958303 1.4010288 2039583
-0.89412415 -0.025030835 1.4051 1843493
0.42856124 -0.025084127 1.4112239 1125705
0.47519347 -0.024975438 1.4353749 1125961
0.50192767 -0.025216324 1.4492136 1125448
-0.90202308 0.024959622 1.4010847 2039583
-0.89415979 0.025032172 1.405156 1843493
0.42856085 0.025066441 1.4112574 1125448
0.47520819 0.024976488 1.4354137 1125704
0.50194371 0.025217392 1.4492595 1125191
-0.90240991 0.075805575 1.4009604 2039583
-0.89419597 0.07509914 1.4052119 1843236
0.42856228 0.075066134 1.4112989 1257546
0.4750576 0.07499817 1.4353704 1191753
0.50195932 0.075053833 1.4493046 1191753
-0.90251696 0.10679311 1.4009509 2039583
-0.89421874 0.10712069 1.405248 1842979
0.42915103 0.10734805 1.4108475 1716555
0.47574976 0.10820391 1.4311386 2900310
0.52236867 0.11251663 1.4275969 8817294
0.57504702 0.1132984 1.4243761 10197915
0.62506491 0.11327275 1.4240535 10197915
0.6749118 0.11324754 1.4235163 10197915
0.72488099 0.11322144 1.4234515 10197915
0.77497691 0.11319581 1.4230859 10197915
0.82490438 0.11317018 1.422763 10197915
0.87495416 0.11314442 1.4224831 10197915
0.92498142 0.11311897 1.4220343 10197915
0.9749856 0.11309305 1.4218373 10197915
1.0234699 0.11306483 1.4234035 10197915
1.0750568 0.11302897 1.428398 10197915
1.1192878 0.11300067 1.4312818 10197915
0.53602082 -0.6530481 1.4664006 3162710
0.57776242 -0.6578896 1.4880124 3031381
0.60092402 -0.66928148 1.4999981 2834003
0.52685237 -0.62496722 1.4616742 3097173
0.57453233 -0.62499905 1.4863663 2899796
0.52683556 -0.5750066 1.4617026 2965332
0.57454073 -0.5749892 1.4864063 2702675
0.52686781 -0.52502358 1.4617573 2834260
0.57456321 -0.52497655 1.4864542 2702676
0.52687567 -0.47499621 1.4617968 2571091
0.57458466 -0.47499782 1.4865029 2440019
0.52671593 -0.42483529 1.4617521 2177104
0.57459855 -0.42499807 1.4865471 2111569
0.52616239 -0.37498948 1.4615033 1913934
0.57461149 -0.3749947 1.4865915 1848655
0.52618629 -0.32499856 1.4615524 1782862
0.57464147 -0.32500648 1.4866432 1783119
0.52620393 -0.27502418 1.461599 1585741
0.57463622 -0.27499706 1.48668 1585741
0.52618891 -0.22498749 1.4616281 1322057
0.57468271 -0.22498424 1.4867402 1256264
0.52626878 -0.17498703 1.4617059 1256521
0.57467961 -0.17498696 1.4867759 1190472
0.52623922 -0.12500334 1.4617295 1388876
0.57469076 -0.12504245 1.4868187 1323083
0.52626407 -0.07491786 1.4617785 1191241
0.57480335 -0.075057343 1.4869151 1190985
0.52626818 -0.024929011 1.4618183 1059399
0.57466584 -0.025015401 1.4868782 1191497
0.52628458 0.024930071 1.461864 1059142
0.57468307 0.025016425 1.486926 993606
0.52631325 0.074925162 1.4619159 1191240
0.57485688 0.075064711 1.487054 926787
0.52701867 0.10698632 1.4619694 1387848
0.57537854 0.10795691 1.4839337 2505811
0.62483484 0.11318003 1.4766957 10066330
0.67484647 0.11315439 1.4763582 10197915
0.72483879 0.11312874 1.4760262 10197915
0.77480519 0.11310311 1.4756894 10197915
0.82475251 0.11307751 1.4753579 10197915
0.87487769 0.11305159 1.4751476 10197915
0.92497998 0.11302634 1.47456 10197915
0.97505957 0.11300015 1.4744774 10197915
1.0251161 0.11297474 1.4740171 10197915
1.0749503 0.11294918 1.4736807 10197915
1.124758 0.11292363 1.4733504 10197915
1.1631005 0.11289357 1.4789847 10197915
0.62654465 -0.66348004 1.5132692 2768467
0.67441976 -0.66910392 1.5380576 2637139
0.62464172 -0.62497985 1.5123122 2702674
0.67327625 -0.62501794 1.5374935 2439504
0.62466687 -0.57499593 1.5123638 2571603
0.67328477 -0.57500052 1.5375441 2308433
0.62470806 -0.52500945 1.5124213 2505811
0.6733343 -0.52500254 1.5375991 2308690
0.62470782 -0.47499955 1.5124593 2242898
0.67333841 -0.47500139 1.5376407 2177361
0.62473786 -0.42500657 1.5125116 2045776
0.67331958 -0.42501932 1.5376716 1914448
0.62475741 -0.3750104 1.5125579 1848655
0.67340118 -0.37503397 1.5377438 1783119
0.62476516 -0.32499078 1.5126014 1783119
0.67337781 -0.32502341 1.5377753 1651020
0.62481445 -0.27498835 1.5126626 1585997
0.67344648 -0.27503181 1.5378456 1519691
0.6248166 -0.22500269 1.5127006 1256521
0.6734333 -0.22503732 1.5378752 1454155
0.62481385 -0.17501459 1.512738 1190985
0.67345667 -0.17499493 1.5379311 1257034
0.62484473 -0.12496218 1.5127901 1257291
0.67277956 -0.12506893 1.5376084 1389645
0.62481421 -0.075028867 1.5128115 1191497
0.6726343 -0.074894063 1.5375788 1389132
0.62496042 -0.025071336 1.5129244 1191497
0.67272204 -0.024890423 1.5376564 1257033
0.62498033 0.025072381 1.5129721 1059398
0.67274374 0.024891458 1.5377039 1125191
0.62487203 0.075036094 1.5129538 795201
0.67269695 0.074901387 1.5377223 860994
0.62559956 0.10707597 1.5126925 1387335
0.67396468 0.10814887 1.5334862 2899541
0.7247833 0.11304347 1.5243492 10132122
0.77512676 0.11301765 1.5240048 10197915
0.82524133 0.112992 1.5236545 10197915
0.87491012 0.11296654 1.5233117 10197915
0.92497808 0.11294063 1.5231057 10197915
0.97502345 0.11291523 1.5226197 10197915
1.0250462 0.11288984 1.5221372 10197915
1.075042 0.11286373 1.5220699 10197915
1.1248105 0.11283845 1.5215849 10197915
1.1743709 0.11281234 1.5216628 10197915
1.2096195 0.11277448 1.5326364 10197915
0.74192476 -0.70188993 1.5729891 2308689
0.77543646 -0.70576054 1.5903392 2045775
0.69901121 -0.67202687 1.5507891 2440018
0.72571713 -0.67427719 1.5646168 2374225
0.77198464 -0.67500132 1.5885752 2111568
0.69903165 -0.62514448 1.5508344 2374225
0.72523564 -0.62496144 1.5644038 2242639
0.77199769 -0.6250298 1.588619 1979726
0.69905353 -0.57504833 1.5508829 2177104
0.72525984 -0.57498503 1.5644536 2045519
0.77203441 -0.57500201 1.5886745 1914190
0.69907546 -0.52494884 1.5509317 2242898
0.72528535 -0.5250057 1.5645043 2177361
0.7720505 -0.52497119 1.5887204 2045776
0.69909757 -0.47484618 1.5509804 2111569
0.72529995 -0.47502309 1.5645481 2046032
0.77209646 -0.47496399 1.588783 2046033
0.69911927 -0.42474046 1.5510291 1848655
0.72535807 -0.4249931 1.5646164 1848655
0.77210563 -0.42497942 1.588823 1848655
0.69914144 -0.37463158 1.5510777 1783119
0.72533625 -0.37498188 1.5646421 1782862
0.77213526 -0.3749924 1.5888777 1717326
0.69883209 -0.32877588 1.5509516 1387592
0.72487944 -0.32479364 1.5644423 1321800
0.77212667 -0.32497525 1.5889088 1322056
0.69834661 -0.27496991 1.5507402 1322056
0.72454405 -0.27497736 1.5643067 1387849
0.77208167 -0.27510047 1.5889236 1387849
0.69836825 -0.22550789 1.5507885 1585997
0.72459126 -0.2249535 1.5643681 1520205
0.77135026 -0.22502336 1.5885813 1585997
0.69839019 -0.17540054 1.5508372 1323083
0.72459346 -0.17496927 1.5644066 1388875
0.77134466 -0.17501131 1.5886161 1388619
0.69762045 -0.12404205 1.5504771 1455181
0.72458512 -0.12504654 1.5644395 1389389
0.77127075 -0.12499671 1.5886152 1323340
0.69759661 -0.075155288 1.5505008 1389132
0.72475046 -0.075077258 1.5645623 1389132
0.77142048 -0.075006783 1.5887297 1323083
0.69761825 -0.025052452 1.5505493 1322825
0.72457331 -0.025021436 1.5645076 1322825
0.77146584 -0.025012117 1.5887901 1191240
0.69764018 0.025053497 1.5505979 1191240
0.72459441 0.025022484 1.5645554 1191240
0.77148944 0.025013153 1.5888399 1190983
0.69766223 0.075162597 1.5506465 927043
0.72482026 0.075084671 1.5647095 927043
0.77149296 0.075014107 1.5888784 860737
0.69767594 0.10664289 1.5506771 992578
0.72533548 0.10719081 1.5641298 1452614
0.77295959 0.10827105 1.5837251 3096406
0.82511336 0.11290111 1.5752302 10132122
0.87516379 0.11287548 1.5748726 10197915
0.92497712 0.1128497 1.5746703 10197915
0.97476822 0.11282447 1.5741612 10197915
1.0247506 0.1127989 1.5738035 10197915
1.0747142 0.11277331 1.573447 10197915
1.124651 0.11274775 1.5730898 10197915
1.1747856 0.11272179 1.5728856 10197915
1.2234108 0.11269425 1.5740378 10197915
1.257573 0.11264798 1.5901016 10197915
0.79683912 -0.70833081 1.6014208 1979983
0.82692045 -0.71176302 1.6169955 2046032
0.87083572 -0.71681589 1.6397338 1980240
0.79679126 -0.67517406 1.6014209 1979983
0.82476008 -0.67499709 1.6159031 1914446
0.87000626 -0.67501473 1.6393306 1914703
0.79683238 -0.62499201 1.6014791 1848654
0.82479531 -0.62499911 1.6159589 1848398
0.87003464 -0.6250037 1.6393893 1782861
0.79687303 -0.57480615 1.6015375 1914190
0.82482529 -0.57504582 1.6160131 1848654
0.87006271 -0.57495576 1.6394358 1717325
0.79686648 -0.52506268 1.6015711 1914704
0.82481915 -0.52501774 1.616045 1914704
0.87006265 -0.52500343 1.6394742 1783118
0.79690701 -0.47509167 1.6016289 1980240
0.82487011 -0.4750101 1.61611 1980497
0.87011981 -0.47498196 1.6395422 1848911
0.79694808 -0.42489558 1.6016879 1783119
0.82489586 -0.42502415 1.6161598 1717583
0.87010753 -0.42495835 1.6395696 1717583
0.79694098 -0.37514427 1.6017219 1651790
0.82490194 -0.37498629 1.6162007 1651790
0.87018424 -0.37499577 1.6396528 1651790
0.79698199 -0.32516295 1.6017801 1256264
0.82496732 -0.32499379 1.6162722 1256264
0.87015539 -0.32503021 1.6396679 1256520
0.79688627 -0.27400854 1.6017686 1322313
0.8249622 -0.27502158 1.6163062 1322313
0.8702507 -0.2750293 1.6397609 1322056
0.796121 -0.22507654 1.6014085 1586253
0.82499033 -0.2249983 1.6163584 1520204
0.87022913 -0.22502482 1.6397811 1586253
0.7961635 -0.17515565 1.6014678 1323339
0.82504642 -0.17499651 1.6164237 1323083
0.87027574 -0.17505053 1.639847 1388875
0.79618883 -0.12473597 1.6015185 1257547
0.82504159 -0.12499131 1.616459 1389132
0.87033403 -0.12503925 1.6399126 1389388
0.79621351 -0.074976593 1.6015688 1323082
0.82510084 -0.074910343 1.6165273 1323082
0.87023705 -0.075156905 1.6398989 1257546
0.79623842 -0.025214057 1.6016181 1191240
0.82505161 -0.024924843 1.6165379 1125191
0.87039214 -0.025139133 1.6400216 1059398
0.79626334 0.025215121 1.6016685 1125191
0.82507896 0.024925893 1.6165898 1125190
0.87041843 0.025140177 1.6400666 1059654
0.79628831 0.07498385 1.6017184 860737
0.82517105 0.074893676 1.6166753 860737
0.87031418 0.075131826 1.6400523 794944
0.79630387 0.10617374 1.6017497 860480
0.82598352 0.10700426 1.6163063 1386822
0.87275958 0.10824622 1.6354624 3030613
0.9249754 0.11275293 1.6295069 10000537
0.9749409 0.11272674 1.6294786 10197915
1.0248839 0.1127015 1.6289397 10197915
1.0750307 0.11267585 1.628569 10197915
1.1251543 0.11264992 1.6283664 10197915
1.1750249 0.112625 1.6276561 10197915
1.2248793 0.11259919 1.6274608 10197915
1.2713819 0.11256963 1.6303788 10197915
1.3046014 0.11252444 1.6461163 10197915
0.89451301 -0.71861988 1.6519918 2111568
0.92430103 -0.71865463 1.667418 1914447
0.9685322 -0.71869463 1.6903218 1848910
0.89452702 -0.67497277 1.6520318 1783118
0.92430609 -0.67496729 1.667452 1717325
0.96847785 -0.67503834 1.6903263 1651789
0.89457577 -0.62503111 1.6520944 1717068
0.92430001 -0.62498349 1.6674858 1717325
0.96851778 -0.62504262 1.6903828 1783374
0.89458311 -0.57508403 1.6521347 1651276
0.92437702 -0.57499635 1.6675638 1651532
0.96856511 -0.57500714 1.6904464 1914959
0.89462149 -0.52499825 1.652192 1585484
0.92436695 -0.52497941 1.6675948 1585484
0.96859002 -0.5250054 1.6904964 1651789
0.89464957 -0.4750458 1.6522436 1453899
0.924429 -0.47501326 1.6676645 1453899
0.96862561 -0.47496346 1.69055 1454155
0.8946774 -0.42509013 1.6522954 1651790
0.92441994 -0.42501637 1.6676981 1651790
0.96863264 -0.4249922 1.6905936 1585997
0.89471602 -0.37499446 1.6523528 1651790
0.92446673 -0.3750172 1.6677577 1585997
0.96843207 -0.37527776 1.6905262 1322570
0.89470249 -0.32489753 1.6523834 1190728
0.92450452 -0.32501376 1.6678159 1256264
0.96773809 -0.3249822 1.690203 1190471
0.89479268 -0.27492946 1.6524671 1256520
0.92448926 -0.27500847 1.6678449 1256520
0.96769303 -0.27496368 1.6902163 1190984
0.8947584 -0.22496545 1.6524862 1586253
0.92458582 -0.22502576 1.6679333 1520460
0.96781796 -0.22494182 1.6903186 1520460
0.89484876 -0.17498913 1.6525708 1389131
0.92456287 -0.17501408 1.6679566 1388875
0.96776611 -0.17499471 1.6903305 1388875
0.89481467 -0.12502092 1.6525904 1389132
0.92466921 -0.12502493 1.668051 1323339
0.96791512 -0.12504447 1.6904447 1323338
0.89490515 -0.075036392 1.6526737 1257033
0.92454463 -0.07490132 1.6680224 1257289
0.96777499 -0.075209789 1.6904086 1191496
0.89487046 -0.025063807 1.6526935 993862
0.92473632 -0.024879407 1.6681592 993862
0.96792614 -0.025212964 1.6905237 993605
0.89489812 0.025064848 1.652745 1059655
0.92476606 0.024880428 1.6682107 1059398
0.96795553 0.025214028 1.6905775 1059397
0.89498895 0.075043671 1.6528287 860480
0.92463684 0.07488212 1.668182 795201
0.96787411 0.075178191 1.6905719 794944
0.89497501 0.10613687 1.6528451 860480
0.92563373 0.10677503 1.6682845 1124163
0.97078496 0.1080448 1.686733 3097175
1.02535 0.11261475 1.6780077 10197915
1.0751595 0.11258929 1.6776285 10197915
1.1252881 0.11256392 1.6771083 10197915
1.1753981 0.11253805 1.6768649 10197915
1.2251405 0.11251262 1.676486 10197915
1.2751975 0.11248726 1.6759665 10197915
1.3175936 0.11246116 1.6781406 10197915
0.99356157 -0.71870112 1.7032826 1783117
1.0241882 -0.71871394 1.7191423 1783117
1.0659065 -0.71877563 1.7407436 1717325
0.99357724 -0.67497104 1.7033232 1585739
1.0242107 -0.67499012 1.7191857 1454154
1.0658869 -0.67498296 1.7407686 1322312
0.99363285 -0.62500393 1.7033887 1783374
1.0242263 -0.62497592 1.7192327 1717581
1.0659602 -0.62501603 1.7408438 1585996
0.99362069 -0.57503736 1.70342 1848910
1.0242432 -0.57498717 1.7192779 1783374
1.0659977 -0.57499981 1.7409 1717324
0.99367559 -0.52506524 1.7034861 1651533
1.0242809 -0.52499604 1.719334 1585740
1.0659963 -0.5249815 1.7409362 1519947
0.9936927 -0.47509035 1.7035319 1388363
1.0243306 -0.47503126 1.7193975 1388362
1.0660335 -0.47495934 1.7409934 1322056
0.99375206 -0.4249956 1.7035996 1520204
1.0243661 -0.42503282 1.7194529 1388619
1.0660979 -0.424934 1.7410623 1322569
0.9934451 -0.3742269 1.7034787 1322313
1.0243505 -0.37497264 1.7194813 1190470
1.0661012 -0.37499589 1.7411004 1190214
0.99283946 -0.3249813 1.7032019 1190471
1.0244642 -0.32496873 1.7195792 1124679
1.0661665 -0.32501 1.7411721 1124422
0.99277306 -0.27489269 1.703205 1190727
1.0244282 -0.27499092 1.7195966 1190727
1.0661517 -0.27502009 1.7412016 1125191
0.99287742 -0.22500037 1.7032956 1520460
1.0244617 -0.22498114 1.719651 1454667
1.0662169 -0.22498295 1.7412748 1388874
0.99285984 -0.17490661 1.7033241 1323338
1.0245057 -0.17502709 1.7197107 1388874
1.0661812 -0.17494126 1.7412932 1323081
