# .PCD v0.7 - Point Cloud Data file format
VERSION 0.7
FIELDS x y z rgb
SIZE 4 4 4 4
TYPE F F F U
COUNT 1 1 1 1
WIDTH 1178
HEIGHT 1
VIEWPOINT 0 0 0 1 0 0 0
POINTS 1178
DATA ascii
0.17495498 0.114122 1.1243926 10197915
0.22493769 0.11409918 1.1240668 10197915
0.27499211 0.11407591 1.123973 10197915
0.32502639 0.11405306 1.1236463 10197915
0.37504199 0.11403006 1.1234195 10197915
0.4250364 0.11400688 1.1232927 10197915
0.4750095 0.11398409 1.1229328 10197915
0.5250569 0.11396094 1.1227731 10197915
0.57508379 0.11393799 1.1225127 10197915
0.62609535 0.11391044 1.1246682 10197915
0.67498064 0.1138842 1.1266356 10197915
0.72493231 0.11386136 1.1263224 10197915
0.77493894 0.11383824 1.1261386 10197915
0.82508177 0.11381512 1.125952 10197915
0.87196743 0.11378849 1.1287062 10197915
0.90568763 0.11374392 1.1455781 10197915
-0.80276 -0.51664025 1.191723 2894892
-0.79114544 -0.51152015 1.169215 2894892
-0.061172847 -0.50866437 1.1562376 2309204
-0.023425544 -0.51301503 1.1757065 2440277
0.01218968 -0.51712042 1.1940697 2703190
-0.80243236 -0.47500288 1.1911969 2894892
-0.78980225 -0.47498694 1.1667061 2894892
-0.061772481 -0.47498834 1.1559494 2111826
-0.025300004 -0.47499886 1.1747688 2243155
0.011871959 -0.47501317 1.1939363 2440020
-0.80217695 -0.42500493 1.1908321 2894892
-0.78951025 -0.42504862 1.1662709 2894892
-0.061787244 -0.42500511 1.1559802 2046291
-0.025322657 -0.42499617 1.1747931 2112083
0.01187202 -0.42500573 1.1939708 2308948
-0.80342776 -0.374643 1.1933898 2894892
-0.78925675 -0.37498349 1.1659096 2894892
-0.061782651 -0.37501794 1.1560223 1914962
-0.025306273 -0.37498808 1.1748356 1980498
0.01187637 -0.37497529 1.1940104 2111826
-0.80399674 -0.32765025 1.1946156 2894892
-0.78995627 -0.3241179 1.1673989 2894892
-0.06178445 -0.32500821 1.1560521 1586255
-0.025319271 -0.3249878 1.1748621 1651534
0.011864029 -0.32500368 1.1940407 1585485
-0.80451906 -0.27519673 1.1957653 2894892
-0.79021919 -0.27500308 1.1680377 2894892
-0.061782748 -0.27501556 1.1560899 1454670
-0.025298944 -0.27498433 1.1749024 1585998
0.011511412 -0.27525094 1.193894 1585998
-0.80424434 -0.2248324 1.1953646 2894892
-0.79118443 -0.22569527 1.1700372 2894892
-0.061782546 -0.22501937 1.1561291 1586512
-0.025308542 -0.22498716 1.1749324 1717841
0.011392092 -0.22502249 1.1938679 1652304
-0.80395532 -0.1747518 1.1949347 2894892
-0.7912277 -0.17518139 1.1702538 2894892
-0.061795156 -0.17500143 1.1561575 1454926
-0.025318192 -0.17499641 1.1749681 1454926
0.011366802 -0.17496543 1.1938924 1389134
-0.80365163 -0.12495479 1.1944762 2894892
-0.7909531 -0.12503891 1.1698521 2894892
-0.061771944 -0.1249989 1.1562014 1652047
-0.025313897 -0.12502135 1.1750138 1652047
0.01135756 -0.12496948 1.1939228 1652047
-0.80339509 -0.074946247 1.1941093 2894892
-0.79063845 -0.07493294 1.1693729 2894892
-0.06222488 -0.074787371 1.1560065 1256778
-0.025290145 -0.075024351 1.1750622 1256778
0.011433352 -0.075013503 1.1939975 1322570
-0.80307454 -0.02497563 1.1936184 2894892
-0.79036874 -0.024943158 1.1689811 2894892
-0.06223885 -0.024904327 1.1560382 1059399
-0.025335796 -0.025006371 1.1750758 1059656
0.011340416 -0.025013968 1.1939859 1125449
-0.80278605 0.024963677 1.1931896 2894892
-0.79009008 0.025012052 1.1685714 2894892
-0.062240735 0.024905337 1.156069 1059399
-0.025336634 0.025007382 1.1751037 1059399
0.011340747 0.025014982 1.1940228 1124935
-0.80253005 0.074862555 1.1928235 2894892
-0.78979057 0.07509052 1.1681222 2894892
-0.062298808 0.074920326 1.1560757 1058886
-0.025292465 0.075031362 1.1751564 1124935
0.011434427 0.075020559 1.194106 1125191
-0.80225247 0.1080604 1.1929235 4144959
-0.77705652 0.11240984 1.1748613 8158332
-0.74099988 0.11448029 1.1655362 9408915
-0.062043499 0.10747144 1.1560096 1255236
-0.024651816 0.10823151 1.1731582 2373456
0.017473489 0.11010892 1.1843114 4937833
0.07495673 0.11408793 1.171739 10197915
0.12503372 0.11406463 1.1716543 10197915
0.17508984 0.11404172 1.171343 10197915
0.2251254 0.11401868 1.1711426 10197915
0.27504414 0.11399566 1.1709459 10197915
0.32503915 0.11397278 1.1706349 10197915
0.37511277 0.11394963 1.1704729 10197915
0.42496973 0.11392697 1.1700854 10197915
0.47575822 0.113901 1.1713649 10197915
0.52499604 0.11387251 1.1745661 10197915
0.5750038 0.11384934 1.1744263 10197915
0.62385309 0.11382339 1.1762508 10197915
0.67514902 0.11379481 1.1789182 10197915
0.72521013 0.11377196 1.1786008 10197915
0.77505511 0.11374882 1.1784811 10197915
0.82497597 0.11372626 1.1780107 10197915
0.87497544 0.11370295 1.1779664 10197915
0.91952622 0.11367571 1.181712 10197915
0.95124596 0.11363345 1.1977559 10197915
-0.82948238 -0.55315763 1.2434447 2894892
0.093121223 -0.55144542 1.2357874 3162197
0.11165609 -0.5535931 1.2453455 3227733
-0.82002622 -0.52318209 1.2251859 2894892
0.037338428 -0.52004558 1.207039 2834262
0.075334094 -0.52397448 1.2266324 2965590
0.10991915 -0.52518564 1.2444704 3097174
-0.81897485 -0.47506636 1.2232736 2894892
0.036980893 -0.4750216 1.2068876 2571605
0.074676804 -0.4749991 1.2263305 2768726
0.10980905 -0.47499523 1.2444497 2834261
-0.81869781 -0.42499384 1.2228674 2894892
0.03701283 -0.42501536 1.2069392 2374740
0.074685074 -0.42500639 1.2263688 2505812
0.10980934 -0.42499804 1.2444843 2637140
-0.8200286 -0.37519112 1.2255781 2894892
0.037012495 -0.37502462 1.2069749 2177362
0.074696407 -0.37501067 1.2264134 2308947
0.10983802 -0.3749719 1.2445368 2440276
-0.81982034 -0.32502729 1.2253058 2894892
0.03699759 -0.32501176 1.2070035 1651020
0.074696809 -0.32500067 1.2264477 1848399
0.10981795 -0.32499641 1.2445616 1913934
-0.81952703 -0.27496374 1.2248665 2894892
0.036620125 -0.27480167 1.2068452 1651791
0.074670881 -0.27499947 1.226468 1782863
0.10981906 -0.27501747 1.2445993 1782606
-0.81921202 -0.22486399 1.2243879 2894892
0.036517039 -0.22498637 1.2068269 1717841
0.074719578 -0.22499438 1.2265321 1849168
0.10985141 -0.22498156 1.2446519 1914961
-0.81894785 -0.17494309 1.2240063 2894892
0.036506165 -0.17499438 1.2068572 1520462
0.074707173 -0.17499723 1.2265604 1586511
0.10983285 -0.17499729 1.2446771 1718096
-0.81863528 -0.12506089 1.2235303 2894892
0.036469612 -0.12499983 1.2068748 1652047
0.074666582 -0.12499702 1.2265754 1652047
0.10979953 -0.12503657 1.2446967 1652047
-0.81880558 -0.074424393 1.2239932 2894892
0.036490206 -0.075002931 1.2069216 1257034
0.074710675 -0.07499399 1.2266346 1257034
0.10990877 -0.075017586 1.2447877 1257034
-0.81976211 -0.025016673 1.2259761 2894892
0.036528982 -0.025001705 1.2069768 1125449
0.074712262 -0.024999559 1.226671 1191241
0.10980617 -0.024999574 1.2447723 1125961
-0.81946689 0.025004672 1.2255353 2894892
0.036530036 0.025002712 1.207014 1125191
0.074714676 0.025000546 1.2267098 1125192
0.10981073 0.024973413 1.2448107 1125192
-0.81919038 0.074987642 1.2251291 2894892
0.036493611 0.075010009 1.2070312 1191240
0.074717425 0.075001031 1.2267456 1191497
0.10991728 0.074997559 1.2449005 1257289
-0.8155573 0.11054186 1.2285911 6513507
-0.78386647 0.11440331 1.2223449 9737623
0.036645241 0.10748418 1.2067947 1518921
0.075341694 0.10826942 1.2241951 2571347
0.11742476 0.11035713 1.2337596 5332846
0.17493145 0.11395432 1.22255 10197915
0.22502623 0.11393132 1.2223026 10197915
0.27499974 0.11390854 1.2219685 10197915
0.32505277 0.11388551 1.2217251 10197915
0.37508807 0.11386253 1.2214757 10197915
0.42510074 0.11383956 1.2212323 10197915
0.47422811 0.11381496 1.2221473 10197915
0.52510917 0.11378452 1.2260442 10197915
0.57502794 0.11376141 1.2259071 10197915
0.62505311 0.11373849 1.2256323 10197915
0.67505908 0.1137156 1.2253023 10197915
0.72504139 0.11369243 1.2251915 10197915
0.77513343 0.11366948 1.2248894 10197915
0.82507902 0.1136465 1.2246693 10197915
0.87500256 0.11362364 1.2243949 10197915
0.92503309 0.11360072 1.2240924 10197915
0.96370763 0.11357451 1.2288541 10197915
-0.85558462 -0.56473476 1.2940286 2894892
-0.84372902 -0.55918324 1.2710539 2894892
0.13672653 -0.55648696 1.2582744 3424853
0.17691256 -0.5611304 1.2789979 3622231
0.20897055 -0.56482279 1.29553 3819609
-0.8552345 -0.52514195 1.2934535 2894892
-0.84217042 -0.52485996 1.268122 2894892
0.13501595 -0.52485764 1.2574146 3228246
0.17469978 -0.52500898 1.2778819 3491160
0.20876357 -0.52499193 1.2954504 3557209
-0.85490638 -0.47486833 1.2929481 2894892
-0.84188533 -0.47498971 1.2676995 2894892
0.13490404 -0.47500718 1.2573936 3031383
0.1747147 -0.47500667 1.2779264 3228503
0.20878957 -0.47498679 1.2955006 3294296
-0.8546223 -0.42516837 1.292527 2894892
-0.84158349 -0.42494404 1.2672449 2894892
0.13492621 -0.42501166 1.2574402 2702932
0.17471658 -0.42498749 1.2779633 2768468
0.20878267 -0.42497829 1.295534 2834260
-0.85431653 -0.37523448 1.2920644 2894892
-0.84128261 -0.3750377 1.2667911 2894892
0.13494204 -0.37501216 1.2574842 2505812
0.17473218 -0.37499011 1.2780063 2571604
0.20879573 -0.37496722 1.2955749 2571604
-0.85398865 -0.3250677 1.2915602 2894892
-0.84101164 -0.32506442 1.2663974 2894892
0.1349282 -0.3249909 1.2575128 1979727
0.17472713 -0.32500246 1.2780402 1979726
0.20878185 -0.32498837 1.2956048 2045775
-0.85370189 -0.27493957 1.2911354 2894892
-0.84067911 -0.27502045 1.2658833 2894892
0.13492061 -0.27498549 1.2575454 1651020
0.17472775 -0.27498677 1.278077 1782606
0.20882681 -0.27500659 1.2956645 1782862
-0.85339648 -0.22511314 1.2906739 2894892
-0.84037781 -0.22511789 1.26543 2894892
0.13496228 -0.22499706 1.2576027 1849425
0.17474692 -0.22499296 1.2781222 1783376
0.20880435 -0.22502217 1.2956876 1849425
-0.85309178 -0.17532241 1.2902126 2894892
-0.8400923 -0.17514452 1.2650059 2894892
0.13495232 -0.17498545 1.2576332 1783632
0.17475572 -0.17500795 1.2781622 1717840
0.20882286 -0.17503412 1.2957336 1717840
-0.8527835 -0.12503241 1.2897466 2894892
-0.83980501 -0.12499886 1.2645802 2894892
0.1349138 -0.12497149 1.2576503 1586511
0.17470495 -0.12500773 1.278173 1586511
0.20833732 -0.12520622 1.2955199 1586511
-0.85245728 -0.075047217 1.2892439 2894892
-0.83984268 -0.075892486 1.2647817 2894892
0.13494131 -0.074993573 1.2576998 1257034
0.17478037 -0.075004369 1.2782475 1257034
0.20828344 -0.075023592 1.2955263 1257034
-0.85361201 -0.023099668 1.2916198 2894892
-0.8409875 -0.024938321 1.2671348 2894892
0.1349871 -0.025011463 1.257759 1191241
0.17475738 -0.024999065 1.2782711 1125705
0.20823045 -0.025112601 1.2955365 1125449
-0.85470212 0.022442531 1.293852 2894892
-0.84187323 0.026344636 1.2689859 2894892
0.13499065 0.025012467 1.2577968 1125191
0.17477013 0.02498804 1.2783139 1125448
0.20823678 0.025113605 1.2955757 1125448
-0.85538381 0.074855015 1.295311 2894892
-0.8422392 0.075120457 1.2698232 2894892
0.13495313 0.075000584 1.2578136 1257289
0.17479046 0.07499937 1.2783606 1191753
0.20830247 0.075030692 1.2956442 1191754
-0.85473114 0.10816565 1.2949231 4408131
-0.8300879 0.11214365 1.2750152 7960953
-0.79610062 0.11434209 1.2615489 7830916
0.1351511 0.10730842 1.2576963 1388105
0.17534553 0.10814401 1.2760233 2505555
0.21675725 0.11039834 1.2837366 5661296
0.27494073 0.11382326 1.2718829 10197915
0.32519767 0.11380006 1.2717451 10197915
0.375175 0.11377704 1.271489 10197915
0.42486539 0.11375452 1.2711105 10197915
0.47480214 0.11373135 1.2709776 10197915
0.52497911 0.11370847 1.2706 10197915
0.57611412 0.1136776 1.2746819 10197915
0.62492979 0.11365239 1.2760782 10197915
0.67479986 0.11362975 1.275672 10197915
0.72486323 0.11360673 1.2754182 10197915
0.77490371 0.11358378 1.2751565 10197915
0.82482147 0.1135607 1.274999 10197915
0.87492681 0.11353781 1.2746445 10197915
0.92501265 0.11351477 1.2744321 10197915
0.97458988 0.11349126 1.2746207 10197915
1.0120081 0.11345197 1.2873652 10197915
-0.88134724 -0.60074145 1.3438901 2894892
0.2997421 -0.60004032 1.3423216 4280414
0.30874085 -0.60133779 1.346962 4280412
-0.87200052 -0.5715825 1.325843 2894892
0.23415464 -0.56772089 1.3085197 3885657
0.27593952 -0.57253361 1.3300638 4017243
0.30731681 -0.57502168 1.3462464 4148828
-0.87077975 -0.52504456 1.3235973 2894892
0.23360316 -0.52499408 1.3082591 3688794
0.27483922 -0.5250048 1.3295311 3754330
0.3073183 -0.52499402 1.3462833 3688794
-0.87044567 -0.47506681 1.3230802 2894892
0.23359519 -0.47502455 1.3082954 3360088
0.27485177 -0.47500262 1.3295746 3360088
0.3073276 -0.47496304 1.346324 3294039
-0.87037271 -0.42464259 1.3230705 2894892
0.23362714 -0.42501166 1.3083532 2834004
0.27488822 -0.42501116 1.3296288 2834261
0.30733186 -0.42497998 1.3463624 2834261
-0.8718524 -0.37497878 1.3260692 2894892
0.23363373 -0.37499589 1.3083836 2637140
0.27488297 -0.3750298 1.3296626 2571604
0.30735123 -0.37494311 1.3464079 2571604
-0.87155247 -0.32494926 1.3256177 2894892
0.23361176 -0.32497677 1.3084083 2045519
0.27489233 -0.32503217 1.3297025 2045776
0.30736318 -0.32495335 1.3464506 2111569
-0.87120193 -0.27495512 1.3250681 2894892
0.23364739 -0.27497455 1.3084708 1782863
0.27490065 -0.27501774 1.3297417 1848398
0.30735967 -0.27506277 1.3464843 1848655
-0.87087715 -0.22484057 1.3245702 2894892
0.23363812 -0.22500972 1.3084942 1849425
0.27489698 -0.22500059 1.329776 1849425
0.30738932 -0.22506717 1.3465357 1849169
-0.87061405 -0.17483833 1.3241905 2894892
0.23364569 -0.17502187 1.3085334 1717840
0.27490404 -0.17498052 1.3298177 1717840
0.307399 -0.17501777 1.3465774 1717840
-0.87025166 -0.12503125 1.323619 2894892
0.233182 -0.12488855 1.3083395 1586510
0.27493274 -0.12495706 1.329867 1586254
0.30739281 -0.12506729 1.3466091 1520718
-0.86995304 -0.075023577 1.3231708 2894892
0.23303077 -0.074953683 1.3082888 1322826
0.27497569 -0.074970998 1.329926 1257034
0.30737883 -0.075165875 1.3466374 1257034
-0.87098253 -0.025837844 1.3252946 2894892
0.23311125 -0.024933796 1.308364 1125705
0.27489191 -0.024996631 1.3299176 1125705
0.30741921 -0.02510624 1.3466945 1125705
-0.87133521 0.024996439 1.326111 2894892
0.23311833 0.024934804 1.3084151 1125191
0.27489954 0.024997629 1.3299581 1059655
0.30709133 0.024509044 1.3465619 1059655
-0.87103653 0.074963525 1.3256629 2894892
0.23305127 0.074960753 1.3084102 1191753
0.27500015 0.074978076 1.3300449 1125191
0.30678183 0.075195126 1.3464376 1125704
-0.8663404 0.11063851 1.3279208 6710886
-0.83915079 0.11426447 1.3187708 9408915
0.23344389 0.10750933 1.3080478 1651019
0.27557808 0.10822593 1.3267158 2636371
0.31790143 0.11104336 1.3303649 6450039
0.37524858 0.11369517 1.3194095 10197915
0.42517683 0.11367239 1.3190775 10197915
0.47508714 0.11364935 1.3188781 10197915
0.5249756 0.11362658 1.3185462 10197915
0.57352018 0.1135973 1.3223915 10197915
0.62551141 0.11355958 1.3302246 10197915
0.67487818 0.11353626 1.3303586 10197915
0.72488719 0.11351332 1.3300902 10197915
0.77501273 0.11349028 1.3298554 10197915
0.82511556 0.1134675 1.3294832 10197915
0.87506378 0.11344443 1.329283 10197915
0.92499024 0.11342166 1.3289435 10197915
0.97489721 0.11339865 1.3287462 10197915
1.0239549 0.11337484 1.3292311 10197915
1.0586202 0.11333632 1.3422959 10197915
-0.90539944 -0.61245733 1.3967603 2039583
-0.89369488 -0.60591364 1.3678194 2894892
0.33528349 -0.60439265 1.3606496 4214620
0.37735161 -0.60924602 1.3823441 4083292
0.40580264 -0.61251575 1.397016 3820379
-0.90533096 -0.57501477 1.3963602 2039583
-0.89157736 -0.57475621 1.3637956 2894892
0.33220038 -0.57499534 1.3590807 4017499
0.37475666 -0.57500422 1.3810308 3754073
0.40572107 -0.57496405 1.397001 3491160
-0.90528286 -0.52498281 1.3962499 2039583
-0.89125872 -0.52484608 1.3633064 2894892
0.33221564 -0.52498031 1.3591242 3623002
0.37476987 -0.52499652 1.3810735 3491673
0.4057191 -0.52501351 1.3970368 3425625
-0.90524703 -0.47495383 1.3962215 2039583
-0.89094085 -0.47497463 1.3628215 2894892
0.33220655 -0.47498211 1.3591553 3228503
0.37478122 -0.47498554 1.3811144 3162968
0.40573508 -0.47506058 1.397079 3031639
-0.90538692 -0.42551428 1.3957866 2039583
-0.89083141 -0.4254818 1.362738 2894892
0.33223456 -0.42500129 1.3592057 2768724
0.37477258 -0.42498648 1.3811461 2702932
0.40574077 -0.42504027 1.3971182 2637396
-0.90541112 -0.37493968 1.3955836 2039583
-0.89243537 -0.37462479 1.3659819 2894892
0.33225134 -0.37501699 1.3592514 2506068
0.37479988 -0.37498501 1.3811969 2440275
0.40575963 -0.37501627 1.3971665 2440275
-0.90534258 -0.32505348 1.3954476 2105376
-0.8920846 -0.32489803 1.3654324 2894892
0.33223352 -0.32503009 1.3592765 2045776
0.37480387 -0.3249805 1.3812335 1914191
0.40508786 -0.32501236 1.3968532 1914191
-0.90528774 -0.27510032 1.3953762 2105376
-0.89176619 -0.27501902 1.3649442 2894892
0.33226076 -0.27499968 1.3593276 1782863
0.37482464 -0.27498806 1.3812805 1717070
0.4050824 -0.27503577 1.3968867 1717326
-0.90551794 -0.22593817 1.3961018 2039583
-0.89244324 -0.22327369 1.3663926 2829099
0.33228189 -0.22498611 1.3593748 1783632
0.37484181 -0.22499272 1.3813251 1718096
0.40513209 -0.22505544 1.3969488 1652304
-0.90597385 -0.1749099 1.3973199 2039583
-0.89329809 -0.1751399 1.3681762 2829099
0.3322933 -0.17501029 1.3594154 1652304
0.37485147 -0.1749949 1.3813657 1652303
0.40514651 -0.17507176 1.3969905 1652047
-0.90592176 -0.12470374 1.3972452 2039583
-0.892941 -0.12507533 1.367614 2829099
0.33227661 -0.12497097 1.3594437 1389133
0.37483314 -0.12502432 1.3813928 1389389
0.4051272 -0.12487034 1.3970189 1389389
-0.90583831 -0.074750096 1.3971112 2039583
-0.89260715 -0.075048037 1.3670977 2829099
0.3323465 -0.074927919 1.3595163 1257034
0.37491819 -0.075050466 1.3814731 1257034
0.40514147 -0.074736916 1.3970606 1191498
-0.90591258 -0.025837922 1.3967794 2039583
-0.89229918 -0.025056042 1.3666316 2894892
0.33226269 -0.024964897 1.3595086 1125705
0.37484273 -0.025029114 1.3814702 1060169
0.40516755 -0.02488854 1.3971105 1125705
-0.90594089 0.024972828 1.3963774 2039583
-0.89197803 0.025044007 1.3661397 2894892
0.33190808 0.025190767 1.3593628 1059655
0.37485385 0.025030116 1.3815122 1125448
0.40517959 0.024889542 1.3971535 1125447
-0.90587169 0.07491006 1.3962784 2039583
-0.89168054 0.075104997 1.3656936 2894892
0.33174038 0.074935503 1.3593121 1191753
0.37495261 0.075057462 1.3815987 1192010
0.40517813 0.074743941 1.3971868 1257546
-0.90558004 0.107631 1.3961368 2500134
-0.88327891 0.11192875 1.3723265 7434867
0.33207479 0.10743678 1.3587813 1716555
0.37551171 0.10830308 1.3777175 2900054
0.41794875 0.11112805 1.3800528 6910588
0.4748278 0.11356113 1.3706098 10197915
0.5249716 0.11353838 1.3701797 10197915
0.57495356 0.11351501 1.3701689 10197915
0.62431777 0.11348265 1.3755798 10197915
0.67504382 0.11345773 1.3762816 10197915
0.72488213 0.11343508 1.3759007 10197915
0.77488649 0.11341216 1.3756251 10197915
0.82506281 0.11338899 1.3754476 10197915
0.87502635 0.11336645 1.3749646 10197915
0.9249717 0.11334317 1.374892 10197915
0.97489721 0.11332064 1.3744093 10197915
1.0248001 0.11329741 1.3743366 10197915
1.0713695 0.11327296 1.3759048 10197915
1.1019235 0.11323887 1.3874806 10197915
-0.9011969 -0.61337113 1.4007027 2039583
-0.89230335 -0.61433285 1.4052875 1908772
0.43205482 -0.61555719 1.410553 3754587
0.47593099 -0.62062305 1.4331858 3359831
0.50376701 -0.62388039 1.4475347 3228502
-0.90122402 -0.57508904 1.400745 2039583
-0.89247978 -0.57495368 1.405255 1908771
0.43113258 -0.57501036 1.4101073 3359831
0.47481033 -0.57500422 1.4326327 3228246
0.50376028 -0.57502049 1.4475663 3162453
-0.90125942 -0.52520275 1.4008 2039583
-0.89251745 -0.52500945 1.4053084 1842979
0.43073478 -0.52523077 1.4099379 3294296
0.47439298 -0.52483362 1.4324542 3096918
0.50376093 -0.52495986 1.4476026 3031381
-0.90129477 -0.4753125 1.4008547 2039583
-0.89256293 -0.47499329 1.4053581 1842979
0.43046719 -0.47500643 1.4098345 2965847
0.47413215 -0.47501439 1.4323633 2768468
0.50378776 -0.47499773 1.4476527 2702675
-0.90166092 -0.4238686 1.4007409 2039583
-0.89258969 -0.42497298 1.4054179 1908515
0.43047464 -0.42498317 1.4098763 2505811
0.47415799 -0.42499515 1.4324021 2440019
0.50381464 -0.42503184 1.4477022 2374226
-0.90180147 -0.37517005 1.4007403 2039583
-0.89261526 -0.3749826 1.405478 1908771
0.43048173 -0.37500083 1.409915 2308947
0.47414294 -0.37497231 1.4324284 2243154
0.50380659 -0.37506279 1.4477344 2177361
-0.90183431 -0.32513049 1.4007969 2039583
-0.89265156 -0.32498825 1.4055326 1908771
0.42981777 -0.32500702 1.4096075 1848654
0.47418195 -0.32499722 1.4324939 1782862
0.50381905 -0.32499141 1.4477766 1782862
-0.90188247 -0.27480054 1.4008456 2039583
-0.89268726 -0.27499035 1.4055872 1908514
0.42980999 -0.27500144 1.4096416 1585741
0.47417596 -0.27500185 1.4325198 1585997
0.50387216 -0.27491525 1.44784 1585741
-0.90190798 -0.22460632 1.4009057 2039583
-0.89272344 -0.22498848 1.4056417 1908771
0.42984912 -0.22499302 1.4096974 1388106
0.4742415 -0.22498658 1.4325997 1454412
0.50385511 -0.22503844 1.447867 1388363
-0.90194315 -0.17470068 1.4009613 2039583
-0.89277375 -0.1750515 1.4056894 1908514
0.42982417 -0.17500204 1.4097188 1322827
0.47418359 -0.17496853 1.4326013 1322570
0.50386465 -0.17505826 1.4479079 1256264
-0.90197879 -0.12479103 1.4010154 2039583
-0.89280796 -0.12514496 1.4057448 1908514
0.42990673 -0.12500814 1.4097998 1389133
0.47423673 -0.12503228 1.432658 1323340
0.50389445 -0.12477332 1.4479594 1323084
-0.9020139 -0.074877471 1.4010708 2039583
-0.89282537 -0.075130716 1.4058092 1908770
0.429811 -0.075095288 1.4097846 1191498
0.47419041 -0.074991345 1.4326789 1191241
0.50390959 -0.074986197 1.4480032 1125449
-0.90231687 -0.023608215 1.4009901 2039583
-0.89286011 -0.025044434 1.405865 1908770
0.42993411 -0.025116112 1.4098849 1125705
0.47433767 -0.02493049 1.4327859 1191497
0.50392485 -0.025196021 1.4480467 1059913
-0.90252042 0.024957355 1.4009563 2039583
-0.89289558 0.025045771 1.4059197 1908770
0.42994878 0.025117109 1.4099287 1125448
0.47435203 0.024931496 1.4328258 1125704
0.5039404 0.02519705 1.4480913 1125448
-0.90255564 0.07487461 1.4010111 2039583
-0.89293081 0.075139888 1.4059755 1908514
0.429849 0.075102352 1.4099123 1257546
0.47422329 0.074964717 1.4328058 1257289
0.5032236 0.074973695 1.4477569 1191753
-0.90257835 0.10680038 1.4010463 2039583
-0.89295334 0.10717879 1.4060105 1908513
0.43051705 0.10730625 1.4097168 1651018
0.47508219 0.10816541 1.4293705 2834518
0.5197354 0.11165433 1.4313744 7568002
0.57492584 0.11341976 1.4259455 10197915
0.62501049 0.11339681 1.4256566 10197915
0.67522275 0.11337386 1.4253252 10197915
0.72512281 0.11335094 1.4250804 10197915
0.77485031 0.11332847 1.4246204 10197915
0.82485723 0.11330529 1.4245061 10197915
0.87498778 0.1132824 1.4241747 10197915
0.92495209 0.11325969 1.4238032 10197915
0.97504234 0.11323646 1.4236408 10197915
1.0251125 0.11321361 1.42331 10197915
1.0750178 0.11319076 1.4230225 10197915
1.1184081 0.1131598 1.4292585 10197915
0.53785628 -0.65272874 1.4650964 3162710
0.57842511 -0.65743899 1.4860171 3031381
0.60288507 -0.66017795 1.4986306 2900052
0.52883494 -0.62494963 1.4604636 3162709
0.57493418 -0.62500179 1.4842404 2899796
0.60285389 -0.62480408 1.4986404 2834260
0.52882922 -0.57500684 1.4604968 2965332
0.57495749 -0.57500708 1.4842871 2768211
0.60288495 -0.57494432 1.4986919 2637139
0.52884567 -0.52499664 1.4605407 2834260
0.57497734 -0.52499115 1.4843324 2702676
0.60291612 -0.52508074 1.4987444 2637139
0.52884275 -0.47498354 1.4605758 2571091
0.57496417 -0.47499079 1.4843637 2440019
0.60292137 -0.47500941 1.4987829 2374226
0.52889413 -0.42501068 1.4606375 2177104
0.57501441 -0.42500517 1.4844259 2111569
0.60292667 -0.42493582 1.4988217 2045776
0.52888525 -0.37501371 1.46067 1913934
0.57503688 -0.37499839 1.4844732 1848655
0.6029579 -0.37506297 1.4988732 1782862
0.52891254 -0.32496953 1.4607192 1782862
0.57502902 -0.32500717 1.4845046 1783119
0.60298896 -0.32518658 1.4989251 1783119
0.52892661 -0.2749657 1.4607618 1585741
0.57504082 -0.27503186 1.4845471 1585741
0.60298157 -0.27489927 1.498958 1585741
0.528934 -0.22495924 1.4608027 1322057
0.57509845 -0.22501551 1.4846132 1256264
0.60301286 -0.22480975 1.4990097 1256264
0.52897841 -0.17494923 1.4608604 1256521
0.57509798 -0.17499706 1.4846469 1190728
0.60303086 -0.17513327 1.4990553 1190472
0.52896649 -0.12498026 1.4608908 1388876
0.57508022 -0.12504958 1.4846747 1323083
0.60306197 -0.12524384 1.499107 1257291
0.52899188 -0.074920818 1.4609401 1191241
0.57518715 -0.075079784 1.4847671 1190985
0.60305434 -0.074946247 1.499139 1256521
0.52898091 -0.024925213 1.4609693 1059399
0.57508653 -0.025035216 1.4847488 1191497
0.60277122 -0.02732677 1.4990276 1191497
0.52899653 0.024926221 1.4610126 1059398
0.5751034 0.025036225 1.484795 993606
0.60231984 0.024838053 1.498832 1059398
0.52830559 0.07491257 1.4606936 1191496
0.57524508 0.075068302 1.4849043 926787
0.60232848 0.074830152 1.4988724 926530
0.52894157 0.10691515 1.4608591 1322055
0.57536662 0.10788441 1.4821786 2505555
0.62063283 0.11207486 1.4822333 8225672
0.67521036 0.11328384 1.4780499 10197915
0.72527748 0.11326091 1.477748 10197915
0.7751205 0.11323789 1.477579 10197915
0.82514256 0.11321541 1.4770262 10197915
0.87514943 0.1131921 1.4769818 10197915
0.92513376 0.11316968 1.4764295 10197915
0.97509754 0.11314636 1.4763852 10197915
1.0252444 0.1131236 1.4759594 10197915
1.0751698 0.11310075 1.4756585 10197915
1.1250722 0.11307792 1.4753629 10197915
1.1639787 0.11305056 1.4807304 10197915
0.62879729 -0.66326255 1.5119927 2768467
0.67603445 -0.66889924 1.5363568 2637139
0.70116246 -0.6680488 1.5493138 2505554
0.62736243 -0.62500846 1.5112807 2702674
0.67431104 -0.62500376 1.5354909 2439504
0.70085615 -0.62512225 1.5491868 2373969
0.62737232 -0.57498235 1.5113213 2571603
0.67434096 -0.57502055 1.535549 2373969
0.70087755 -0.57507855 1.5492342 2177104
0.62739229 -0.52499765 1.5113692 2505811
0.67433071 -0.52501357 1.5355784 2374226
0.70089895 -0.52503181 1.5492811 2242898
0.62742382 -0.47501034 1.5114207 2242898
0.674357 -0.47500363 1.5356231 2177361
0.70091999 -0.47498205 1.5493279 2177105
0.6274386 -0.42499745 1.5114639 2045776
0.67439562 -0.42501163 1.5356886 1980240
0.70094126 -0.4249292 1.5493749 1848655
0.62743908 -0.37500381 1.5115008 1848655
0.67439759 -0.37499553 1.5357168 1783119
0.70095146 -0.37519711 1.5494156 1848655
0.62746835 -0.32500741 1.5115514 1783119
0.67443526 -0.32499731 1.5357764 1651276
0.70098346 -0.32545632 1.549468 1387592
0.62751025 -0.27500731 1.5116092 1585997
0.67444849 -0.27501738 1.5358205 1519691
0.70100468 -0.27539453 1.549515 1322056
0.62748194 -0.22504945 1.5116301 1256521
0.67444897 -0.22499217 1.5358493 1454155
0.70084143 -0.22882712 1.5494645 1585741
0.62754607 -0.17504366 1.5117002 1190985
0.67451608 -0.1749848 1.535929 1257034
0.70020986 -0.17521277 1.5491771 1323083
0.62751698 -0.12496782 1.5117197 1257291
0.67451262 -0.12499635 1.5359583 1389645
0.70023108 -0.12515573 1.549224 1455181
0.62752789 -0.075024046 1.5117607 1191241
0.67452908 -0.074918985 1.5359995 1389132
0.70025212 -0.075095676 1.5492711 1389132
0.62723684 -0.024832133 1.5116484 1191497
0.67452949 -0.024925625 1.5360459 1257033
0.70027345 -0.025032567 1.5493178 1322825
0.62686843 0.025047868 1.5114927 1059398
0.67455149 0.024926603 1.5360813 1125191
0.70029467 0.025033578 1.5493648 1191240
0.62678021 0.074993737 1.5114838 860737
0.67458832 0.07490468 1.5361444 860993
0.70031595 0.075102754 1.5494117 927043
0.62737781 0.10698807 1.5114204 1321542
0.67533368 0.10797419 1.5327669 2636627
0.72311383 0.11266883 1.5280874 9343123
0.77522832 0.11315536 1.5258572 10197915
0.82521415 0.11313249 1.5255495 10197915
0.87496638 0.11310975 1.525243 10197915
0.92491084 0.11308669 1.5250747 10197915
0.97504491 0.11306399 1.5246255 10197915
1.0247366 0.11304127 1.5243189 10197915
1.0748311 0.1130183 1.5240133 10197915
1.1251117 0.11299534 1.5237004 10197915
1.1747509 0.11297239 1.5235332 10197915
1.210263 0.11293656 1.5347937 10197915
0.74359465 -0.70151871 1.5711751 2308689
0.77914631 -0.70556569 1.5895088 2045775
0.7267589 -0.67408633 1.5625107 2374225
0.77459341 -0.67497581 1.5871842 2111568
0.72616959 -0.62500763 1.5622431 2242640
0.77460825 -0.62499791 1.5872266 1979726
0.72619516 -0.57502729 1.5622909 2045519
0.77465326 -0.5749926 1.587285 1979726
0.72624129 -0.52502072 1.5623516 2177361
0.77466965 -0.52498537 1.5873305 2046032
0.72623283 -0.47501096 1.5623835 2045776
0.77470434 -0.47497374 1.5873835 2046033
0.72627187 -0.42499822 1.5624394 1848655
0.77468151 -0.42498311 1.5874075 1848655
0.72629023 -0.37498266 1.5624855 1782862
0.77476752 -0.37498975 1.5874878 1717326
0.72632051 -0.32496381 1.5625365 1321800
0.77475601 -0.32499278 1.5875182 1321800
0.72632718 -0.27496526 1.5625762 1387849
0.77475291 -0.27501696 1.587551 1387849
0.72606462 -0.22478658 1.5624772 1520205
0.77483314 -0.22501415 1.587629 1585997
0.72554606 -0.17499386 1.5622442 1388875
0.77441895 -0.17523739 1.5874519 1388619
0.72552532 -0.12502812 1.5622705 1389389
0.77390337 -0.12503785 1.5872225 1323340
0.72564107 -0.075080834 1.5623667 1389132
0.77397525 -0.075016446 1.5872957 1323083
0.72552419 -0.025044579 1.5623405 1322825
0.77408171 -0.024990018 1.5873863 1256776
0.72554642 0.025045585 1.5623906 1191240
0.77410519 0.024991011 1.5874333 1190983
0.72570699 0.07508789 1.562507 927043
0.77404648 0.075023517 1.5874404 860737
0.7263422 0.10708254 1.5623395 1321029
0.77483404 0.10806882 1.5835116 2767442
0.82485366 0.11304437 1.5772293 10000793
0.87498909 0.11302149 1.5769097 10197915
0.92510813 0.11299857 1.5765899 10197915
0.97498578 0.11297554 1.5764251 10197915
1.0248449 0.11295301 1.5759541 10197915
1.074903 0.11293009 1.5756347 10197915
1.1249368 0.11290723 1.5753157 10197915
1.1749543 0.11288437 1.5749969 10197915
1.2233057 0.11285973 1.5761796 10197915
1.2571925 0.11282016 1.5900768 10197915
0.82688534 -0.71110624 1.6141267 2046032
0.87465858 -0.71658385 1.6387618 1980240
0.8245824 -0.6750145 1.6129661 1914446
0.8734709 -0.67498308 1.6381819 1914703
0.82464832 -0.62498784 1.6130358 1848398
0.87349117 -0.62497056 1.6382282 1782861
0.82465374 -0.57498121 1.6130749 1848654
0.87350559 -0.57498133 1.6382688 1717325
0.82468534 -0.52499586 1.6131251 1914704
0.87318945 -0.52521449 1.6381464 1783118
0.82470793 -0.47500709 1.6131746 1980497
0.87261403 -0.47499028 1.6378802 1848911
0.82472843 -0.425015 1.6132206 1717583
0.87267441 -0.42501599 1.6379499 1717583
0.82475078 -0.3750205 1.613268 1651790
0.87266713 -0.37501007 1.6379826 1651790
0.82477087 -0.32502308 1.6133151 1256264
0.87268192 -0.32500193 1.6380242 1256520
0.82476002 -0.2749981 1.6133434 1322313
0.87274694 -0.27496237 1.6380966 1322056
0.82487601 -0.22501832 1.6134406 1520204
0.87274593 -0.22494721 1.6381279 1586253
0.79875356 -0.16240215 1.6000124 1257547
0.82486105 -0.17503563 1.6134683 1323083
0.87279463 -0.17498681 1.638194 1388875
0.79877174 -0.12462152 1.6000489 1257547
0.82486182 -0.1249781 1.6135051 1389132
0.87284535 -0.12499367 1.6382536 1389388
0.79879576 -0.074907705 1.6000969 1388618
0.82499325 -0.074916765 1.6136091 1323082
0.87275308 -0.075112835 1.6382424 1257546
0.79881978 -0.025190867 1.6001451 1191240
0.82485008 -0.024951329 1.61357 1125447
0.87291545 -0.025113769 1.6383638 1059398
0.79884422 0.025191894 1.6001939 1125191
0.82487398 0.024952341 1.6136191 1125190
0.87294215 0.025114762 1.6384079 1059654
0.79886812 0.074914724 1.6002423 860737
0.82506847 0.074923821 1.6137551 860737
0.87283283 0.075119875 1.638392 794944
0.79888326 0.1060758 1.6002724 860736
0.82572961 0.1068894 1.6136861 1255236
0.87408614 0.10794806 1.6347663 2767442
0.92520326 0.11292037 1.6223371 10197915
0.97508538 0.11289737 1.6221358 10197915
1.02494 0.11287484 1.6216832 10197915
1.0751146 0.1128519 1.6213535 10197915
1.1254007 0.11281327 1.6301844 10197915
1.1747282 0.11279015 1.6302211 10197915
1.2249085 0.11276694 1.6300583 10197915
1.2720621 0.11274097 1.6323493 10197915
1.305923 0.11269733 1.6486454 10197915
0.89892668 -0.71864581 1.6512784 2046032
0.92485827 -0.71859789 1.6646533 1848654
0.97095245 -0.71861935 1.6884261 1783118
0.89892006 -0.67488557 1.6513066 1783118
0.9248209 -0.67503041 1.6646669 1717325
0.97088504 -0.67498344 1.688424 1651789
0.89897346 -0.62495959 1.6513702 1717068
0.92485267 -0.625036 1.6647171 1717325
0.97095007 -0.62498814 1.6884941 1783374
0.89897436 -0.57503945 1.651407 1651276
0.92485797 -0.57501078 1.6647582 1651276
0.97091991 -0.57502216 1.6885134 1914959
0.89859605 -0.52271211 1.6512491 1585484
0.92490596 -0.52501029 1.6648178 1585484
0.97100788 -0.52502054 1.6885965 1651789
0.89790225 -0.47681457 1.650924 1453899
0.92470813 -0.47482488 1.6647489 1453899
0.97099352 -0.47501644 1.6886243 1454155
0.89718074 -0.42498893 1.6505895 1651790
0.92398077 -0.42500076 1.6644137 1651790
0.97109455 -0.42500895 1.6887125 1585997
0.89718187 -0.3750878 1.6506262 1651790
0.92403895 -0.37499338 1.6644757 1585997
0.97105604 -0.37503052 1.6887285 1322826
0.89722204 -0.3248325 1.650683 1190728
0.92403084 -0.32498309 1.6645117 1256264
0.97111958 -0.32501727 1.6887971 1190471
0.8972491 -0.27491915 1.6507326 1256520
0.92409927 -0.27499583 1.6645814 1256520
0.97111756 -0.27500114 1.6888309 1190984
0.89727628 -0.22500281 1.6507826 1520716
0.92410344 -0.22500594 1.6646197 1520460
0.97120458 -0.22501336 1.6889138 1520460
0.89730346 -0.17508346 1.6508327 1323339
0.92411202 -0.17495957 1.6646601 1388875
0.97115457 -0.17505451 1.6889226 1388875
0.89733064 -0.12516102 1.6508824 1389132
0.92421877 -0.12496372 1.6647495 1323339
0.97130513 -0.12506084 1.6890366 1323338
0.89735764 -0.07523565 1.6509324 1257033
0.92411077 -0.074858971 1.664732 1257289
0.97117865 -0.075160459 1.6890059 1191496
0.89738476 -0.025307208 1.6509823 993862
0.92425865 -0.024857011 1.6648434 993862
0.97130716 -0.025160717 1.689109 993605
0.8974123 0.025308242 1.6510324 1059655
0.92428792 0.024858 1.6648932 1059398
0.97098625 0.024911366 1.6889788 993861
0.89743924 0.075242728 1.6510825 794944
0.92419344 0.074865967 1.6648818 795201
0.97024661 0.075192273 1.6886342 794944
0.89755422 0.10700291 1.6511141 1123651
0.9251864 0.10742635 1.6635187 1978699
0.97259665 0.1084697 1.681622 3623005
1.0250425 0.11279184 1.6702503 10197915
1.07534 0.11276891 1.6699106 10197915
1.1242253 0.11273089 1.678758 10197915
1.1747209 0.11270646 1.6792326 10197915
1.224908 0.11268331 1.6790295 10197915
1.2747343 0.11266058 1.6786908 10197915
1.318182 0.11263704 1.6805747 10197915
0.99694866 -0.7186203 1.7018358 1651789
1.0254846 -0.71867079 1.7165551 1651789
1.0703152 -0.7186299 1.7396766 1585996
0.99657434 -0.67673492 1.7016727 1585739
1.0250508 -0.6747725 1.7163618 1454154
1.0702702 -0.67494959 1.7396849 1322312
0.99600422 -0.62498552 1.7014163 1848910
1.0245054 -0.62502414 1.716117 1717581
1.0703603 -0.62497199 1.7397683 1585996
0.99599636 -0.5749591 1.7014478 1848910
1.024513 -0.57498926 1.7161562 1783374
1.0703286 -0.57499141 1.7397856 1717324
0.99606448 -0.52492493 1.7015189 1651532
1.0245745 -0.52498025 1.7162244 1585740
1.0703993 -0.5250082 1.7398602 1519947
0.99605662 -0.47489348 1.701551 1453899
1.0246168 -0.47496769 1.7162806 1388362
1.0704343 -0.47505954 1.7399118 1322313
0.99610561 -0.42508924 1.7016122 1520204
1.0245805 -0.42495236 1.7162999 1454155
1.0704387 -0.42503259 1.7399515 1322569
0.99613565 -0.37504864 1.7016637 1322313
1.024688 -0.37496293 1.7163895 1190470
1.07049 -0.37500197 1.7400135 1190214
0.99616593 -0.32500497 1.7017146 1124935
1.0246609 -0.32499859 1.7164119 1124679
1.0705134 -0.32500678 1.7400609 1124422
0.99619603 -0.27495825 1.701767 1190727
1.024739 -0.27503142 1.7164887 1190727
1.070464 -0.27504313 1.7400733 1125191
0.99622607 -0.22490861 1.7018185 1520460
1.0247114 -0.2250322 1.7165091 1454667
1.06955 -0.22494021 1.7396363 1388874
0.99625659 -0.17485584 1.7018695 1323338
1.0247964 -0.17503087 1.7165891 1388874
1.0695262 -0.17497617 1.7396613 1323081
0.99628639 -0.12480003 1.7019215 1323338
1.0248525 -0.12502523 1.7166551 1323338
1.0696956 -0.12500973 1.7397817 1323081
0.99631697 -0.074741215 1.701973 1257032
1.0247513 -0.074904822 1.7166377 1191239
1.0695366 -0.075202167 1.7397382 1125446
0.99634683 -0.024679372 1.7020246 993605
1.0249387 -0.024893196 1.7167722 993605
1.0696924 -0.02522788 1.7398536 993605
0.99593306 0.026384059 1.7018476 1059397
1.0249717 0.0248942 1.7168221 1059397
1.0696961 0.025189508 1.7398934 1059140
0.99539781 0.074725345 1.7016065 795201
1.0248426 0.074911833 1.7167943 794944
1.0696636 0.075168446 1.7399113 728893
0.99541676 0.10645027 1.7016387 993348
1.0258076 0.1070639 1.7163342 1716554
1.0719591 0.10818852 1.7344388 3425882
1.1251582 0.11265808 1.7211545 10197915
1.1751813 0.11263547 1.7206558 10197915
1.2251976 0.11261243 1.720457 10197915
1.2751819 0.1125899 1.7199593 10197915
1.3251567 0.11256686 1.7197607 10197915
1.3607923 0.11254265 1.7241789 10197915
1.0947217 -0.71868223 1.7522643 1519946
1.1238595 -0.71870846 1.7672926 1520203
1.1680286 -0.7187475 1.7900721 1519946
1.0947511 -0.67514354 1.7523108 1256776
1.123947 -0.67501873 1.7673709 1322569
1.1680682 -0.67501074 1.7901251 1388617
1.0947838 -0.62507129 1.7523639 1651531
1.1239622 -0.6249935 1.7674129 1520203
1.1681395 -0.62499171 1.7901983 1454410
1.0948174 -0.57499588 1.7524168 1782860
1.1239743 -0.57499731 1.7674559 1717580
1.1680965 -0.57496977 1.7902131 1783116
1.0948505 -0.52491724 1.7524701 1454155
1.124029 -0.52499801 1.7675188 1453897
1.1681826 -0.52498782 1.790293 1454410
1.0948598 -0.47501817 1.7525108 1388105
1.1240482 -0.47493294 1.7675649 1388362
1.1682134 -0.47504762 1.7903455 1322569
1.0949478 -0.42511299 1.7525922 1322312
1.1240751 -0.42492756 1.7676158 1256519
1.168249 -0.42505935 1.7904004 1190983
1.0949188 -0.37502873 1.7526131 1124678
1.124122 -0.37498254 1.7676752 1190727
1.1682544 -0.37502584 1.7904359 1322568
1.0950065 -0.32511607 1.7526942 1124165
1.1241403 -0.32500386 1.7677212 1058115
1.1683079 -0.32498798 1.7905012 1058629
1.0949174 -0.27468345 1.7526844 1190727
1.12422 -0.27502087 1.7677974 1124934
1.1683084 -0.27499172 1.7905378 1124934
1.0939792 -0.22503841 1.752236 1323081
1.1241519 -0.22500393 1.7677993 1257545
1.168391 -0.22494809 1.7906159 1257288
1.0940129 -0.17495441 1.7522895 1323081
1.1243149 -0.17501578 1.7679186 1323080
1.1683904 -0.17494558 1.79065 1322824
1.0940455 -0.12486751 1.7523428 1257545
1.1243138 -0.12502329 1.7679547 1257288
1.1681409 -0.12533936 1.7905591 1191495
1.0940784 -0.074777514 1.7523957 1125446
1.1242449 -0.07490319 1.7679551 1125190
1.1672723 -0.075187601 1.7901481 1125189
1.094112 -0.024684507 1.7524486 993348
1.1244215 -0.024904711 1.7680807 993348
1.1674341 -0.02521719 1.7902666 993603
1.0941443 0.024685493 1.7525011 993603
1.1244537 0.024905708 1.7681351 1058883
1.1674689 0.025218224 1.790321 1058883
1.094178 0.074784555 1.7525537 728637
1.1243483 0.074910201 1.7681159 728380
1.1673787 0.075194679 1.7903099 728636
1.0942948 0.10685961 1.7525902 1124676
1.1253533 0.10739154 1.7663486 2242382
1.1714183 0.10858407 1.78272 4083295
1.224961 0.11251915 1.7751125 10066330
1.274958 0.11249602 1.774972 10197915
1.3249334 0.11247361 1.7743942 10197915
1.3740215 0.11244972 1.7749441 10197915
1.4120489 0.11240497 1.7907354 10197915
1.1939356 -0.71875 1.8034359 1519946
1.224824 -0.71874863 1.8193665 1519946
1.2669086 -0.71879935 1.8410727 1453897
1.1939729 -0.67505902 1.8034867 1322824
1.2248986 -0.6749782 1.8194381 1322824
1.2669374 -0.67498487 1.84112 1322567
1.1939981 -0.62501955 1.8035355 1454409
1.2249221 -0.62499678 1.8194845 1454153
1.2669861 -0.62501836 1.8411798 1388616
1.1940453 -0.57497418 1.8035959 1717323
1.2249128 -0.57501364 1.8195179 1520202
1.2669854 -0.57504869 1.8412169 1454409
1.1940699 -0.52492893 1.8036449 1454154
1.2250013 -0.5250262 1.8195975 1388360
1.2670676 -0.52502483 1.8412942 1322567
1.1940894 -0.47500217 1.8036902 1388361
1.2249621 -0.47500065 1.8196141 1388360
1.2670571 -0.47504896 1.8413258 1322311
1.1941651 -0.42507446 1.803766 1322825
1.2250838 -0.42500794 1.8197123 1388617
1.2670808 -0.42511448 1.8413732 1322567
1.194167 -0.37501818 1.8038026 1257032
1.2250595 -0.37504768 1.819736 1322568
1.2659581 -0.37494552 1.8408295 1322311
1.1942203 -0.32508376 1.8038659 1058629
1.2251384 -0.32501331 1.8198125 1058628
1.2660409 -0.32494837 1.8409089 1058627
1.1942567 -0.27502152 1.8039201 1124677
1.2251923 -0.27501073 1.8198761 1059141
1.2660435 -0.27494738 1.840946 1058884
1.1942642 -0.22508247 1.8039606 1322824
1.2251508 -0.22497003 1.819891 1257031
1.2660867 -0.22505358 1.8410041 1256774
1.1935626 -0.17593485 1.8036339 1322567
1.2244179 -0.17473578 1.81955 1257030
1.2661778 -0.17504659 1.8410877 1256517
1.1927112 -0.12381707 1.8032326 1191494
1.2241561 -0.12498793 1.8194493 1191238
1.2662181 -0.12498172 1.8411434 1125189
1.1921775 -0.074939415 1.8029925 1124932
1.2240531 -0.074866563 1.8194327 1124676
1.2661111 -0.075190693 1.8411243 1124675
1.1921238 -0.024903238 1.8030002 1059139
1.224255 -0.024876174 1.8195734 1058882
1.266274 -0.025172455 1.8412435 1058881
1.1921762 0.024778133 1.8030633 1059139
1.2242926 0.024877189 1.8196276 1058625
1.2663136 0.025173482 1.8413016 1058368
1.1922687 0.074823588 1.8031467 794428
1.2241629 0.074873686 1.8195986 794171
1.2662263 0.075197786 1.841293 727864
1.192263 0.1060783 1.8031663 1124674
1.2253286 0.1066704 1.8198005 1452869
1.270299 0.1081538 1.8376352 3491160
1.3249454 0.11237377 1.8328217 10197915
1.3747829 0.1123511 1.8324515 10197915
1.4242349 0.11232828 1.8322701 10197915
1.4582753 0.11229255 1.843874 10197915
1.2903496 -0.82143617 1.883824 6710886
1.3230661 -0.8184709 1.8707049 6710886
1.3657461 -0.82321358 1.8920921 6710886
1.2917031 -0.7779662 1.8813125 6710886
1.3218119 -0.77491754 1.8701828 6710886
1.3654283 -0.7750265 1.8920126 6710886
1.2925999 -0.72205472 1.8556304 2439758
1.3242594 -0.72544819 1.870989 6710886
1.3655792 -0.72510958 1.8921784 6710886
1.2919723 -0.67502785 1.8540323 1782602
1.3248508 -0.67497635 1.8712432 6710886
1.3656584 -0.67505562 1.8923069 6710886
1.2919567 -0.62499362 1.8540589 1782858
1.324994 -0.62496322 1.8714036 6710886
1.3657836 -0.62499434 1.8924624 6710886
1.2920262 -0.57495326 1.8541313 1914187
1.3250893 -0.57497978 1.8715377 6710886
1.3658522 -0.57499063 1.892586 6710886
1.2920529 -0.52504194 1.8541811 1782346
1.3251762 -0.52498919 1.8716694 6710886
1.3659508 -0.5250448 1.8927252 6710886
1.2920732 -0.47499591 1.8542283 1650761
1.3252602 -0.47499117 1.8717977 6710886
1.3655548 -0.47554809 1.8926084 6710886
1.2920706 -0.42471233 1.8542624 1716553
1.3247943 -0.42529339 1.8716427 6710886
1.3642677 -0.42443699 1.8920363 6710886
1.2909473 -0.37499255 1.8537197 1650761
1.3242443 -0.3749817 1.8714446 6710886
1.3637657 -0.37497243 1.8918637 6710886
1.2910396 -0.3249746 1.8538029 1387334
1.3243477 -0.32499713 1.8715855 6710886
1.3638705 -0.32503143 1.8920064 6710886
1.2910367 -0.27506298 1.853837 1518918
1.3244262 -0.2749671 1.8717105 6710886
1.3640013 -0.27508166 1.8921638 6710886
1.291065 -0.22492954 1.8538876 1519431
1.3245537 -0.22496752 1.8718629 6710886
1.3640974 -0.22505952 1.8923013 6710886
1.2911679 -0.1750094 1.8539766 1519175
1.3245878 -0.17496225 1.8719651 6710886
1.3641921 -0.17503001 1.8924401 6710886
1.2911434 -0.12509146 1.8539996 1519174
1.3247914 -0.12494799 1.8721584 6710886
1.3641981 -0.12519155 1.8925304 6710886
1.2912452 -0.075163402 1.8540885 1518917
1.324685 -0.074813329 1.8721879 6710886
1.3644052 -0.075276487 1.8927258 6710886
1.2912211 -0.025241286 1.8541117 1453124
1.3249676 -0.02482279 1.8724205 6710886
1.3641754 -0.025526049 1.8926939 6710886
1.2912611 0.025242325 1.8541691 1452867
1.3250622 0.024825159 1.8725554 6710886
1.3633569 0.025087774 1.8923625 6710886
1.291363 0.075170502 1.8542579 1188412
1.3249711 0.074830174 1.8725935 6710886
1.3634595 0.075268336 1.8925034 6710886
1.2913551 0.10601217 1.8542755 1386561
1.3263638 0.10685994 1.8724231 6974058
1.3691313 0.10864641 1.8873081 7829367
1.4248753 0.11224379 1.8815589 10197915
1.4719151 0.1122193 1.8830143 10197915
1.5031419 0.11218648 1.8936603 10197915
1.2647189 -0.85748333 1.9334161 6710886
1.3936201 -0.8514123 1.9064223 6710886
1.4295334 -0.85561347 1.9249437 6710886
1.4648842 -0.85974324 1.943174 6710886
1.2692091 -0.82539737 1.9247911 6710886
1.3904951 -0.82496887 1.9048568 6710886
1.4250062 -0.82500023 1.9226614 6710886
1.4640847 -0.82508618 1.9428223 6710886
1.2752663 -0.78980976 1.9131421 6710886
1.3906145 -0.77501357 1.9050065 6710886
1.4250954 -0.77495998 1.9227968 6710886
1.4641864 -0.77509385 1.9429648 6710886
1.390698 -0.72495145 1.9051391 6710886
1.4251981 -0.72495484 1.9229374 6710886
1.4642093 -0.72522509 1.9430649 6710886
1.3908169 -0.67498213 1.9052892 6710886
1.4253174 -0.67494172 1.9230857 6710886
1.4631237 -0.67505771 1.9425937 6710886
1.3909355 -0.62500459 1.9054384 6710886
1.4254673 -0.62496305 1.9232541 6710886
1.4632105 -0.62512648 1.9427269 6710886
1.3910192 -0.57492036 1.9055709 6710886
1.425513 -0.57501936 1.9233652 6710886
1.4633121 -0.57510746 1.9428675 6710886
1.3903728 -0.5257166 1.9053242 6710886
1.4248292 -0.52468222 1.9231032 6710886
1.4634546 -0.52508152 1.9430306 6710886
1.3893818 -0.47412351 1.9049046 6710886
1.4244095 -0.47501719 1.9229745 6710886
1.4635223 -0.47504839 1.9431533 6710886
1.3887935 -0.42502454 1.9046884 6710886
1.4245815 -0.42501739 1.9231517 6710886
1.4636648 -0.42500687 1.9433156 6710886
1.3888924 -0.37504247 1.9048278 6710886
1.4247153 -0.37497112 1.9233081 6710886
1.4637783 -0.37503883 1.9434627 6710886
1.3889906 -0.32505482 1.904967 6710886
1.4247229 -0.32495633 1.9234033 6710886
1.4638745 -0.32506275 1.9436011 6710886
1.389159 -0.27505904 1.9051424 6710886
1.4249288 -0.27497464 1.9235957 6710886
1.4639753 -0.27499923 1.9437413 6710886
1.3892083 -0.22505622 1.9052565 6710886
1.4249331 -0.22502509 1.9236879 6710886
1.4632128 -0.22547965 1.9434361 6710886
1.3892666 -0.17504765 1.9053755 6710886
1.425117 -0.1750669 1.9238708 6710886
1.4628583 -0.17479894 1.9433428 6710886
1.3894311 -0.12473222 1.9055485 6710886
1.4252422 -0.12506351 1.924023 6710886
1.4630041 -0.12480131 1.9435071 6710886
1.3895333 -0.07500264 1.9056903 6710886
1.4249431 -0.07516712 1.9239596 6710886
1.4626608 -0.074294187 1.9434191 6710886
1.3892519 -0.024648234 1.9056336 6710886
1.4240456 -0.024875272 1.9235843 6710886
1.4619093 -0.024955017 1.9431188 6710886
1.3884784 0.025259603 1.9053233 6710886
1.4241765 0.024835294 1.9237394 6710886
1.4620177 0.024957502 1.9432631 6710886
1.3885454 0.075083598 1.905447 6710886
1.4243602 0.074881166 1.923924 6710886
1.4621266 0.074877471 1.9434083 6710886
1.3887877 0.10586769 1.9056257 6710886
1.4253815 0.10687501 1.9234759 6974058
1.4684634 0.10850427 1.9380553 7895160
1.5202206 0.11210493 1.9367474 10197915
1.2393255 -0.86852235 1.98261 6710886
1.2528391 -0.86265051 1.9564294 6710886
1.4895345 -0.86252451 1.9558873 6710886
1.5256132 -0.86674643 1.974493 6710886
1.5618154 -0.8712157 1.9931628 6710886
1.2431383 -0.83916277 1.9752897 6710886
1.2531044 -0.83151668 1.9559932 6710886
1.4893225 -0.82496017 1.9558442 6710886
1.5242701 -0.82507408 1.9738741 6710886
1.5613759 -0.82485485 1.9930178 6710886
1.4893632 -0.7750861 1.9559536 6710886
1.5244401 -0.77502155 1.9740515 6710886
1.5614618 -0.77482128 1.9931513 6710886
1.4893748 -0.72482526 1.9560485 6710886
1.5245541 -0.72500646 1.9741983 6710886
1.5615886 -0.72496331 1.9933041 6710886
1.4882778 -0.67496181 1.9555711 6710886
1.5246389 -0.67498481 1.9743305 6710886
1.5617454 -0.6750986 1.9934741 6710886
1.4884177 -0.62495792 1.9557317 6710886
1.5247145 -0.62500036 1.9744582 6710886
1.5618203 -0.62495172 1.9936033 6710886
1.4884897 -0.57494694 1.9558575 6710886
1.5248975 -0.57505369 1.9746419 6710886
1.561958 -0.57488793 1.9937627 6710886
1.4885923 -0.52492815 1.9559996 6710886
1.5249724 -0.52500963 1.9747671 6710886
1.5620536 -0.5250001 1.9938996 6710886
1.4887412 -0.47490215 1.9561645 6710886
1.5251054 -0.4749566 1.9749262 6710886
1.5621504 -0.4751063 1.9940372 6710886
1.4888428 -0.4248676 1.9563063 6710886
1.525264 -0.4249891 1.9750959 6710886
1.5621938 -0.42536914 1.9941479 6710886
1.4889823 -0.37491593 1.9564666 6710886
1.5252813 -0.37505805 1.9751935 6710886
1.561036 -0.37497607 1.9936393 6710886
1.4890064 -0.32504821 1.9565666 6710886
1.5254451 -0.3249833 1.9753664 6710886
1.5611683 -0.32492775 1.9937975 6710886
1.4892137 -0.27508208 1.9567628 6710886
1.525575 -0.27494702 1.9755225 6710886
1.5612516 -0.27497497 1.9939283 6710886
1.4878505 -0.22510904 1.9561478 6710886
1.5250614 -0.22470467 1.9753479 6710886
1.5613157 -0.22491322 1.9940509 6710886
1.4867294 -0.17509352 1.9556586 6710886
1.5244527 -0.17502216 1.9751203 6710886
1.5614997 -0.17515138 1.9942337 6710886
